ply
format ascii 1.0
comment Generated by royaleviewer 3.15.050
element vertex 1335
property float x
property float y
property float z
property uchar red
property uchar green
property uchar blue
element face 0
property list uchar int vertex_index
end_header
-0.00624065 -0.0824511 0.357371 52 52 52
-0.00468143 -0.0840483 0.364304 45 45 45
-0.00297493 -0.0833091 0.361106 53 53 53
-0.00130406 -0.0829563 0.359581 68 68 68
0.0003495 -0.0818507 0.354789 73 73 73
0.00199493 -0.0822322 0.356441 89 89 89
0.00354966 -0.0802192 0.347711 178 178 178
0.00524281 -0.0816138 0.353748 148 148 148
0.00712324 -0.0845698 0.36655 269 269 269
0.0116223 -0.111518 0.483333 310 310 310
0.0109043 -0.08779 0.380474 349 349 349
0.0133586 -0.0926401 0.401472 274 274 274
0.0135759 -0.0826851 0.358307 225 225 225
0.0151743 -0.0823895 0.357 184 184 184
0.0169849 -0.083191 0.360444 154 154 154
0.0186871 -0.083366 0.361169 143 143 143
0.0203559 -0.0833755 0.361174 141 141 141
0.0223607 -0.0846557 0.366679 140 140 140
0.0239311 -0.0842268 0.364777 144 144 144
0.0244389 -0.0803602 0.347986 153 153 153
0.0248528 -0.076681 0.332007 68 68 68
0.0295061 -0.0857496 0.371214 35 35 35
0.0314756 -0.086451 0.374189 83 83 83
0.0328256 -0.0854666 0.369863 143 143 143
0.0346572 -0.0857712 0.371111 154 154 154
0.0366123 -0.0863386 0.37349 145 145 145
0.0386822 -0.0871132 0.37676 132 132 132
0.0407093 -0.0877291 0.379337 117 117 117
0.0431026 -0.0890504 0.384956 94 94 94
0.0448224 -0.0889308 0.38434 67 67 67
0.0476 -0.090839 0.392479 54 54 54
0.0496694 -0.091305 0.394378 39 39 39
0.0531461 -0.0942335 0.406902 33 33 33
0.0551201 -0.094388 0.407438 36 36 36
0.0580636 -0.0961377 0.414849 46 46 46
0.0609048 -0.0976113 0.421056 60 60 60
0.062925 -0.0977183 0.421357 87 87 87
0.064478 -0.0971154 0.41859 124 124 124
0.0662341 -0.0968445 0.417247 144 144 144
0.0688121 -0.0977567 0.420992 141 141 141
0.0722954 -0.099869 0.429889 118 118 118
0.0759065 -0.10204 0.439019 109 109 109
0.078208 -0.102382 0.440269 134 134 134
0.0800923 -0.102175 0.439143 157 157 157
0.0829703 -0.103215 0.443363 157 157 157
0.084763 -0.102886 0.441693 138 138 138
0.0875668 -0.103772 0.445221 64 64 64
0.0958932 -0.111009 0.475968 12 12 12
0.0978261 -0.110686 0.474262 6 6 6
0.0891268 -0.0986124 0.422236 1 1 1
0.504717 -0.54635 2.33764 1 1 1
1.24733 -1.32162 5.65045 0 0 0
1.27685 -1.32484 5.65976 0 0 0
0.99141 -1.00777 4.30166 1 1 1
1.03542 -1.03154 4.39936 1 1 1
1.0033 -0.980029 4.17593 1 1 1
1.04369 -0.999958 4.25689 1 1 1
1.0727 -1.00843 4.28882 2 2 2
0.656695 -0.605965 2.57456 0 0 0
1.11801 -1.01295 4.29927 1 1 1
1.16321 -1.03516 4.38878 1 1 1
0.650767 -0.569008 2.40973 1 1 1
1.18135 -1.01519 4.2943 1 1 1
1.19907 -1.01301 4.27997 1 1 1
1.21345 -1.00814 4.25408 1 1 1
1.25189 -1.02308 4.3116 1 1 1
0.712275 -0.572736 2.4105 1 1 1
1.25226 -0.991006 4.1652 1 1 1
1.30624 -1.01762 4.27104 2 2 2
1.35404 -1.03869 4.35311 2 2 2
0.78058 -0.589743 2.4679 0 0 0
1.36419 -1.01533 4.24234 2 2 2
1.41994 -1.04134 4.3441 1 1 1
1.45136 -1.049 4.369 2 2 2
1.44626 -1.03043 4.2845 2 2 2
1.45467 -1.02187 4.24167 1 1 1
1.4812 -1.02609 4.25179 2 2 2
1.53331 -1.04769 4.33357 2 2 2
1.53241 -1.03296 4.26493 3 3 3
1.53815 -1.02304 4.2162 2 2 2
1.60059 -1.05061 4.32172 2 2 2
1.63942 -1.06215 4.36094 2 2 2
1.64628 -1.05296 4.31494 1 1 1
1.66575 -1.05197 4.30255 3 3 3
0.939953 -0.586206 2.39294 2 2 2
1.70914 -1.05279 4.2892 2 2 2
1.74363 -1.06097 4.31415 2 2 2
1.76557 -1.06141 4.30761 2 2 2
1.83405 -1.08948 4.41307 2 2 2
1.82361 -1.07057 4.32827 1 1 1
1.84113 -1.06832 4.31116 2 2 2
1.85843 -1.066 4.29399 2 2 2
1.87071 -1.06087 4.26584 1 1 1
1.91812 -1.07557 4.3176 2 2 2
1.13076 -0.627033 2.51299 1 1 1
1.93417 -1.06078 4.24482 2 2 2
1.98108 -1.07473 4.29442 2 2 2
2.03835 -1.09394 4.36532 1 1 1
2.00451 -1.06436 4.24206 1 1 1
2.04064 -1.07216 4.26843 2 2 2
2.0715 -1.07706 4.28376 2 2 2
1.10198 -0.567074 2.25351 2 2 2
2.1152 -1.07739 4.27847 2 2 2
2.16845 -1.09338 4.3396 2 2 2
2.12528 -1.06092 4.20907 1 1 1
2.17111 -1.07309 4.25633 1 1 1
2.21802 -1.08555 4.30538 1 1 1
1.11639 -0.54109 2.14617 0 0 0
1.16899 -0.561152 2.22625 0 0 0
0.0617966 -0.0293822 0.116613 0 0 0
2.62741 -1.23749 4.91402 0 0 0
0.072118 -0.0336501 0.133716 0 0 0
2.62269 -1.21243 4.82193 0 0 0
0.215357 -0.098645 0.392707 0 0 0
1.28032 -0.581133 2.31612 0 0 0
2.43645 -1.09595 4.37347 0 0 0
-1.88788 -0.827957 3.372 0 0 0
-0.872989 -0.386318 1.57132 1 1 1
-1.63335 -0.729381 2.96328 0 0 0
-2.34137 -1.05516 4.28251 0 0 0
-3.20502 -1.45777 5.91146 1 1 1
-0.724615 -0.33267 1.34806 0 0 0
-0.0165094 -0.00765113 0.0309869 0 0 0
-0.316765 -0.148202 0.599973 0 0 0
-0.783628 -0.370162 1.49817 0 0 0
-3.05734 -1.45825 5.90151 0 0 0
-1.48966 -0.717495 2.90391 0 0 0
-0.758103 -0.368765 1.49284 0 0 0
-1.19484 -0.58703 2.37735 0 0 0
-2.04191 -1.01336 4.10611 0 0 0
-1.0161 -0.509425 2.06561 0 0 0
-3.11567 -1.57819 6.40459 1 1 1
-1.29713 -0.663902 2.69686 0 0 0
-1.72831 -0.893922 3.63525 0 0 0
-1.17938 -0.616505 2.51018 0 0 0
-2.75654 -1.45647 5.9382 1 1 1
-1.02349 -0.546674 2.23209 0 0 0
-2.89694 -1.56438 6.39727 1 1 1
-1.79703 -0.981221 4.01909 0 0 0
-1.77541 -0.980339 4.02233 1 1 1
-1.68684 -0.942041 3.87204 0 0 0
-1.72578 -0.974894 4.01439 1 1 1
-1.70373 -0.973655 4.01679 0 0 0
-1.63014 -0.942588 3.89604 1 1 1
-1.49771 -0.876346 3.62924 3 3 3
-1.47984 -0.876354 3.63634 4 4 4
-1.45234 -0.870581 3.61946 5 5 5
-1.43778 -0.872521 3.63465 4 4 4
-1.41874 -0.871763 3.63859 5 5 5
-1.39779 -0.86979 3.63742 4 4 4
-1.37179 -0.86458 3.62262 4 4 4
-1.35813 -0.867119 3.6402 5 5 5
-1.33967 -0.866618 3.64496 4 4 4
-1.32848 -0.870872 3.66965 4 4 4
-1.31549 -0.874046 3.68975 4 4 4
-1.29324 -0.871067 3.68376 4 4 4
-1.27148 -0.868341 3.67868 4 4 4
-1.25124 -0.866588 3.67755 3 3 3
-1.23547 -0.86793 3.68943 5 5 5
-1.22257 -0.871351 3.71002 3 3 3
-1.19982 -0.867754 3.7006 4 4 4
-1.17742 -0.864304 3.6916 4 4 4
-1.17352 -0.874532 3.74091 3 3 3
-1.14628 -0.867422 3.71593 5 5 5
-1.12933 -0.867993 3.72366 4 4 4
-1.12091 -0.875242 3.75993 4 4 4
-1.09632 -0.869895 3.74194 5 5 5
-1.06929 -0.862404 3.71451 3 3 3
-1.05996 -0.869183 3.74838 4 4 4
-1.03784 -0.865522 3.7371 3 3 3
-1.02465 -0.869305 3.7578 3 3 3
-1.01238 -0.874025 3.78246 3 3 3
-0.984786 -0.865439 3.74936 4 4 4
-0.981175 -0.878004 3.80778 3 3 3
-0.955059 -0.870524 3.77914 3 3 3
-0.938926 -0.872032 3.78935 3 3 3
-0.922609 -0.873423 3.79894 3 3 3
-0.900902 -0.869667 3.786 3 3 3
-0.892497 -0.878858 3.82931 2 2 2
-0.0824636 -0.0828679 0.361366 3 3 3
-0.0853826 -0.0875967 0.382291 31 31 31
-0.0809637 -0.0848387 0.370536 53 53 53
-0.0782556 -0.0837918 0.366231 82 82 82
-0.0753698 -0.0825038 0.360854 115 115 115
-0.0735111 -0.0823069 0.360234 135 135 135
-0.0712631 -0.0816548 0.35761 146 146 146
-0.0695854 -0.0816406 0.357767 154 154 154
-0.0675899 -0.0812436 0.356236 166 166 166
-0.0651946 -0.0803341 0.352445 174 174 174
-0.0635728 -0.0803553 0.352727 177 177 177
-0.0616104 -0.0799358 0.351064 183 183 183
-0.0599728 -0.0799264 0.351194 186 186 186
-0.0583155 -0.0798894 0.351194 189 189 189
-0.056625 -0.0798034 0.350971 193 193 193
-0.0549801 -0.0797787 0.351009 194 194 194
-0.0531763 -0.0795147 0.349987 204 204 204
-0.0513021 -0.0791255 0.348406 209 209 209
-0.0496695 -0.0790959 0.348401 212 212 212
-0.0480073 -0.0790154 0.348165 201 201 201
-0.0459892 -0.0783234 0.345227 190 190 190
-0.0441904 -0.0779684 0.343768 182 182 182
-0.0426806 -0.0781158 0.344517 182 182 182
-0.040523 -0.0770431 0.339879 183 183 183
-0.0391241 -0.0773845 0.341473 165 165 165
-0.0376017 -0.0775 0.342065 159 159 159
-0.0353531 -0.0760632 0.3358 195 195 195
-0.0326281 -0.0734225 0.324212 274 274 274
-0.0313798 -0.0740106 0.326875 275 275 275
-0.030238 -0.0749219 0.330962 161 161 161
-0.0285968 -0.0746271 0.329718 74 74 74
-0.0285093 -0.0785817 0.347247 52 52 52
-0.0272348 -0.0795408 0.351539 78 78 78
-0.0255314 -0.0792893 0.350478 92 92 92
-0.0239903 -0.0795418 0.35164 91 91 91
-0.0226668 -0.0806052 0.356384 91 91 91
-0.0207294 -0.0794805 0.35145 104 104 104
-0.019089 -0.079401 0.351134 118 118 118
-0.0173602 -0.0789046 0.348971 123 123 123
-0.0158891 -0.0795974 0.352065 116 116 116
-0.0143818 -0.0802461 0.35496 100 100 100
-0.0128658 -0.081007 0.35835 79 79 79
-0.0112246 -0.081088 0.358728 61 61 61
-0.00942596 -0.0798621 0.353322 46 46 46
-0.0077604 -0.0794875 0.35168 46 46 46
-0.00617657 -0.0799732 0.35384 49 49 49
-0.00464006 -0.0816402 0.361225 56 56 56
-0.00290679 -0.0797736 0.352972 71 71 71
-0.00128245 -0.0799509 0.35376 103 103 103
0.000346359 -0.0794936 0.351738 123 123 123
0.00203578 -0.0822384 0.36388 181 181 181
0.0045041 -0.0997539 0.441376 280 280 280
0.00531656 -0.0811074 0.358864 267 267 267
0.0089342 -0.10395 0.459919 286 286 286
0.0571965 -0.537841 2.37955 438 438 438
0.0682664 -0.538624 2.38291 439 439 439
0.0145887 -0.0991488 0.438618 293 293 293
0.0133241 -0.0795293 0.351803 272 272 272
0.0151618 -0.0806758 0.35685 199 199 199
0.016813 -0.0807026 0.356941 167 167 167
0.0186532 -0.0815512 0.360663 157 157 157
0.0205352 -0.0824286 0.364508 154 154 154
0.0229968 -0.0853234 0.377269 154 154 154
0.0249002 -0.0858857 0.379712 155 155 155
0.0242668 -0.0781995 0.345687 188 188 188
0.0247554 -0.0748537 0.330852 87 87 87
0.0288344 -0.0821224 0.362926 39 39 39
0.0315944 -0.0850426 0.375772 88 88 88
0.0324293 -0.0827469 0.365566 149 149 149
0.0343505 -0.0833129 0.368 162 162 162
0.0364643 -0.0842706 0.372158 151 151 151
0.0386617 -0.0853267 0.376744 138 138 138
0.0407734 -0.0861106 0.380121 122 122 122
0.042964 -0.0869897 0.383912 99 99 99
0.0450943 -0.0876818 0.38687 77 77 77
0.0474178 -0.0886825 0.391182 59 59 59
0.0501184 -0.0902888 0.398156 46 46 46
0.0531171 -0.0922993 0.406901 35 35 35
0.054914 -0.0921554 0.40614 34 34 34
0.0585038 -0.0949302 0.41823 47 47 47
0.0601994 -0.0945521 0.416419 82 82 82
0.0619045 -0.0942119 0.414768 128 128 128
0.0644913 -0.0951936 0.418928 159 159 159
0.0663358 -0.0950543 0.418145 158 158 158
0.0696371 -0.0969512 0.426306 137 137 137
0.0731849 -0.099077 0.435457 108 108 108
0.0759321 -0.100034 0.439455 123 123 123
0.0780902 -0.100185 0.439899 145 145 145
0.0800225 -0.100046 0.43906 171 171 171
0.0820536 -0.100034 0.438769 178 178 178
0.0840435 -0.0999738 0.438256 166 166 166
0.0863296 -0.100261 0.43925 113 113 113
0.0937402 -0.106348 0.465627 22 22 22
0.0904715 -0.100318 0.43894 6 6 6
0.0949378 -0.102942 0.450114 2 2 2
0.0658506 -0.0698575 0.305234 1 1 1
0.126771 -0.131636 0.574742 1 1 1
0.533027 -0.542003 2.36462 0 0 0
0.953144 -0.949502 4.13909 0 0 0
1.01028 -0.986378 4.29622 1 1 1
1.02671 -0.982845 4.27708 1 1 1
0.598155 -0.561633 2.44185 1 1 1
1.10394 -1.01706 4.41774 1 1 1
0.601771 -0.544184 2.36142 1 1 1
1.14113 -1.01324 4.39232 0 0 0
1.17602 -1.02564 4.44137 2 2 2
1.16353 -0.99701 4.31264 2 2 2
1.1928 -1.00454 4.34024 1 1 1
1.23894 -1.02577 4.42676 1 1 1
1.23582 -1.0062 4.33697 1 1 1
1.25886 -1.00821 4.34016 2 2 2
1.2965 -1.02166 4.39232 1 1 1
1.33219 -1.03319 4.43585 3 3 3
1.35281 -1.03284 4.42817 2 2 2
0.744277 -0.559525 2.39545 1 1 1
1.34699 -0.997329 4.26347 1 1 1
1.36588 -0.996272 4.25246 1 1 1
0.760603 -0.546651 2.32966 2 2 2
1.40101 -0.992365 4.22235 1 1 1
1.47603 -1.03061 4.37786 2 2 2
1.49213 -1.02723 4.35609 3 3 3
1.50912 -1.02454 4.33717 2 2 2
1.52847 -1.0235 4.3251 1 1 1
1.55353 -1.02626 4.32897 2 2 2
1.60194 -1.04418 4.39645 3 3 3
1.59227 -1.02425 4.30451 2 2 2
1.62203 -1.02988 4.31997 2 2 2
1.67411 -1.04936 4.39325 3 3 3
1.72363 -1.06676 4.45744 2 2 2
1.69128 -1.03369 4.31084 2 2 2
1.74277 -1.05205 4.37882 1 1 1
1.7512 -1.04427 4.33797 2 2 2
1.81616 -1.07 4.43614 2 2 2
1.76684 -1.02858 4.25615 2 2 2
1.8161 -1.04485 4.3152 2 2 2
1.86049 -1.05797 4.36114 2 2 2
1.85269 -1.04146 4.28512 2 2 2
1.86993 -1.03923 4.26826 2 2 2
1.91747 -1.05371 4.32018 1 1 1
1.96348 -1.06703 4.36748 1 1 1
1.94835 -1.0472 4.2795 1 1 1
1.98761 -1.05672 4.31188 2 2 2
2.01763 -1.06117 4.32397 2 2 2
2.08712 -1.08607 4.41968 3 3 3
2.11857 -1.09086 4.43394 2 2 2
2.08978 -1.06485 4.32368 1 1 1
2.12457 -1.07144 4.34646 1 1 1
2.14792 -1.07218 4.34611 2 2 2
1.2581 -0.62168 2.51841 0 0 0
2.19543 -1.07403 4.34878 1 1 1
2.27967 -1.10422 4.4696 1 1 1
3.25161 -1.5596 6.31181 1 1 1
2.25443 -1.07084 4.33374 1 1 1
2.32333 -1.09297 4.42401 0 0 0
3.3958 -1.58231 6.40672 0 0 0
1.34542 -0.621014 2.51564 0 0 0
2.54136 -1.16209 4.71041 0 0 0
2.61278 -1.1837 4.80177 0 0 0
2.64144 -1.18573 4.81446 1 1 1
2.87779 -1.28011 5.20321 0 0 0
2.75287 -1.21353 4.93857 0 0 0
-0.797579 -0.342655 1.42376 1 1 1
-0.940245 -0.407593 1.69149 1 1 1
-1.78176 -0.779425 3.23103 0 0 0
-3.16355 -1.3966 5.784 0 0 0
-2.38702 -1.06357 4.4012 0 0 0
-0.171177 -0.0769841 0.318367 0 0 0
-0.668936 -0.303688 1.25528 0 0 0
-3.32628 -1.5245 6.29935 0 0 0
-1.14925 -0.531798 2.19705 0 0 0
-1.12995 -0.527952 2.18114 0 0 0
-0.955909 -0.451024 1.8636 0 0 0
-1.42579 -0.679402 2.80811 0 0 0
-1.24854 -0.600904 2.48481 0 0 0
-3.11347 -1.51363 6.26294 0 0 0
-2.04976 -1.00669 4.16857 0 0 0
-2.13732 -1.06054 4.39555 1 1 1
-2.24758 -1.12689 4.67547 0 0 0
-0.160979 -0.0815637 0.338805 0 0 0
-2.72899 -1.39744 5.81233 0 0 0
-1.00862 -0.522057 2.17443 0 0 0
-1.85005 -0.968006 4.03795 0 0 0
-1.78735 -0.945499 3.95039 1 1 1
-1.10705 -0.592148 2.47822 0 0 0
-1.76093 -0.95251 3.99337 0 0 0
-1.74113 -0.952528 4.00069 0 0 0
-1.69317 -0.936962 3.94265 0 0 0
-1.70989 -0.957242 4.03566 0 0 0
-1.61196 -0.913062 3.85684 0 0 0
-1.48906 -0.853514 3.61236 2 2 2
-1.46404 -0.84931 3.60165 3 3 3
-1.44905 -0.850894 3.61549 4 4 4
-1.43216 -0.851384 3.62472 4 4 4
-1.40171 -0.843727 3.59918 4 4 4
-1.38614 -0.844944 3.61141 4 4 4
-1.37428 -0.848487 3.63357 4 4 4
-1.36618 -0.854469 3.66618 4 4 4
-1.34375 -0.851528 3.66044 4 4 4
-1.31573 -0.844924 3.63879 5 5 5
-1.29617 -0.843642 3.63987 5 5 5
-1.29073 -0.851643 3.68095 4 4 4
-1.26226 -0.844462 3.65628 4 4 4
-1.24417 -0.844118 3.66103 4 4 4
-1.22906 -0.845812 3.67448 5 5 5
-1.2217 -0.852972 3.71159 5 5 5
-1.18617 -0.84038 3.66258 3 3 3
-1.17504 -0.844961 3.6882 5 5 5
-1.15711 -0.844719 3.69264 4 4 4
-1.14146 -0.846151 3.70426 4 4 4
-1.12972 -0.850581 3.72888 4 4 4
-1.10616 -0.84611 3.71433 3 3 3
-1.09475 -0.850933 3.74042 3 3 3
-1.07903 -0.852509 3.75212 4 4 4
-1.05748 -0.849463 3.74331 4 4 4
-1.03707 -0.847238 3.73795 3 3 3
-1.02879 -0.855013 3.77658 3 3 3
-1.01145 -0.855407 3.7825 3 3 3
-0.978639 -0.842494 3.72938 3 3 3
-0.972464 -0.852459 3.77737 3 3 3
-0.952177 -0.850194 3.77106 3 3 3
-0.936163 -0.851731 3.78148 3 3 3
-0.917989 -0.851323 3.78313 3 3 3
-0.893492 -0.844921 3.75798 3 3 3
-0.890094 -0.858614 3.82211 3 3 3
-1.28495 -1.26491 5.63531 3 3 3
-0.0849513 -0.0853765 0.380657 28 28 28
-0.0805743 -0.0827085 0.369036 55 55 55
-0.0783321 -0.082163 0.366864 80 80 80
-0.0757181 -0.0811944 0.362788 110 110 110
-0.0728646 -0.079919 0.357323 125 125 125
-0.0714258 -0.0801718 0.358678 131 131 131
-0.0687522 -0.0790177 0.353726 138 138 138
-0.0671115 -0.0790232 0.353953 144 144 144
-0.0655872 -0.0791694 0.354801 148 148 148
-0.0636985 -0.0788719 0.353652 145 145 145
-0.0614852 -0.0781462 0.350572 146 146 146
-0.0598138 -0.0780885 0.350479 147 147 147
-0.0580724 -0.0779336 0.349941 150 150 150
-0.056714 -0.0782985 0.35173 146 146 146
-0.0544358 -0.0773777 0.347735 148 148 148
-0.0525704 -0.0770053 0.346196 150 150 150
-0.0509718 -0.0770125 0.346355 149 149 149
-0.0496625 -0.0774717 0.348541 152 152 152
-0.047684 -0.0768825 0.346005 142 142 142
-0.0461104 -0.0769279 0.346317 118 118 118
-0.0447637 -0.0773689 0.348405 93 93 93
-0.0430913 -0.0772589 0.348007 66 66 66
-0.0421387 -0.0784808 0.353603 45 45 45
-0.0396778 -0.0768789 0.346472 49 49 49
-0.0363362 -0.073364 0.330709 140 140 140
-0.0338738 -0.0713939 0.321898 265 265 265
-0.0325942 -0.0718502 0.324023 271 271 271
-0.0312603 -0.0722249 0.325775 271 271 271
-0.0297 -0.072088 0.325217 154 154 154
-0.0294187 -0.0752061 0.339341 75 75 75
-0.0285592 -0.0771136 0.348003 84 84 84
-0.0271462 -0.0776649 0.350542 102 102 102
-0.0256645 -0.0780768 0.352449 110 110 110
-0.0239586 -0.0778167 0.351318 113 113 113
-0.0222143 -0.0773847 0.349409 120 120 120
-0.0205008 -0.0770008 0.347712 132 132 132
-0.0190686 -0.0776981 0.350895 128 128 128
-0.0176202 -0.0784526 0.354333 121 121 121
-0.0160656 -0.0788403 0.356112 105 105 105
-0.0145121 -0.0793218 0.358313 84 84 84
-0.0128178 -0.0790588 0.357147 64 64 64
-0.0111188 -0.0786846 0.355476 60 60 60
-0.00944277 -0.0783726 0.354083 63 63 63
-0.00780083 -0.0782718 0.353641 63 63 63
-0.0062108 -0.0787761 0.355931 63 63 63
-0.00463565 -0.079899 0.361013 66 66 66
-0.00297416 -0.0799576 0.361284 79 79 79
-0.00128023 -0.0781849 0.353277 94 94 94
0.000352719 -0.079302 0.358326 155 155 155
0.00214793 -0.084999 0.384066 290 290 290
0.024363 -0.528571 2.3883 426 426 426
0.00644238 -0.0962778 0.435015 291 291 291
0.00756371 -0.0862091 0.389511 271 271 271
0.00719498 -0.0662771 0.299443 308 308 308
0.00875147 -0.067641 0.305592 311 311 311
0.0159819 -0.106402 0.480685 255 255 255
0.0135007 -0.0789399 0.356601 163 163 163
0.0152056 -0.0792588 0.358018 151 151 151
0.0169693 -0.0797918 0.360398 158 158 158
0.0187011 -0.080093 0.361729 161 161 161
0.0204621 -0.0804599 0.363353 159 159 159
0.0224787 -0.0816999 0.368916 158 158 158
0.0241202 -0.0814984 0.367965 159 159 159
0.0239591 -0.075633 0.341442 226 226 226
0.0248802 -0.0736966 0.332657 102 102 102
0.0283846 -0.0791925 0.357415 42 42 42
0.0316062 -0.0833391 0.376072 89 89 89
0.0326356 -0.0815746 0.368051 150 150 150
0.0346733 -0.0823804 0.371622 161 161 161
0.0365973 -0.0828528 0.373683 156 156 156
0.0384853 -0.0832048 0.375196 142 142 142
0.0407016 -0.0842056 0.379629 124 124 124
0.0425548 -0.0844037 0.380436 104 104 104
0.0450899 -0.085885 0.38702 83 83 83
0.0472035 -0.0864808 0.389606 65 65 65
0.0498435 -0.0879619 0.396171 52 52 52
0.0520404 -0.0885839 0.398858 36 36 36
0.0561278 -0.0922711 0.415335 32 32 32
0.0584305 -0.0928773 0.41793 50 50 50
0.0603652 -0.0928785 0.417795 99 99 99
0.0626624 -0.0934201 0.420081 145 145 145
0.0646789 -0.0935231 0.420387 164 164 164
0.066765 -0.0937179 0.421096 151 151 151
0.0709209 -0.0967244 0.434424 116 116 116
0.0735293 -0.0975127 0.437773 123 123 123
0.0756835 -0.0976724 0.438289 132 132 132
0.078412 -0.0985456 0.441994 144 144 144
0.0804707 -0.0985539 0.441807 171 171 171
0.0821482 -0.0981065 0.439568 189 189 189
0.0845238 -0.0984943 0.441059 179 179 179
0.0868207 -0.0987742 0.442055 142 142 142
0.0925721 -0.10288 0.460151 35 35 35
0.0996761 -0.10827 0.483948 8 8 8
0.0876561 -0.0931077 0.415898 2 2 2
0.557381 -0.579235 2.58555 1 1 1
0.125582 -0.127742 0.569793 0 0 0
0.538045 -0.535947 2.38877 1 1 1
0.110331 -0.107667 0.479504 0 0 0
1.00177 -0.958122 4.26355 0 0 0
1.04953 -0.984195 4.37581 0 0 0
1.0819 -0.995121 4.42043 1 1 1
0.5943 -0.53636 2.38035 1 1 1
1.12127 -0.993285 4.40391 2 2 2
1.12496 -0.978509 4.33404 2 2 2
1.15014 -0.982613 4.34767 1 1 1
0.671269 -0.563469 2.49043 0 0 0
1.21209 -0.999962 4.41468 1 1 1
1.22767 -0.995712 4.3908 2 2 2
1.25991 -1.00489 4.42592 1 1 1
1.29243 -1.01399 4.46043 1 1 1
1.3099 -1.01117 4.44231 3 3 3
1.3035 -0.990318 4.34488 2 2 2
1.33729 -1.00016 4.38204 1 1 1
1.30556 -0.961461 4.20648 2 2 2
0.767687 -0.556813 2.43254 2 2 2
1.40947 -1.0071 4.39307 2 2 2
1.43591 -1.01095 4.403 2 2 2
1.46177 -1.01428 4.41049 3 3 3
1.48198 -1.01366 4.40058 2 2 2
1.50839 -1.01724 4.40868 2 2 2
1.5507 -1.03129 4.46191 3 3 3
1.55642 -1.02096 4.40942 2 2 2
1.60802 -1.04059 4.48614 2 2 2
1.60105 -1.02231 4.39924 1 1 1
1.62818 -1.02599 4.40687 1 1 1
1.65685 -1.03053 4.418 1 1 1
1.68967 -1.03751 4.43939 2 2 2
1.70085 -1.03119 4.40378 2 2 2
1.72663 -1.03377 4.40618 2 2 2
1.78665 -1.05653 4.49435 1 1 1
1.81494 -1.06021 4.50109 2 2 2
1.76535 -1.01885 4.31696 1 1 1
1.78569 -1.01835 4.30639 2 2 2
1.81973 -1.02558 4.32855 2 2 2
1.89235 -1.05414 4.44053 2 2 2
1.85814 -1.02321 4.30214 1 1 1
1.90827 -1.03891 4.36009 3 3 3
1.99576 -1.07436 4.50082 1 1 1
1.98114 -1.05467 4.41072 2 2 2
1.96768 -1.03602 4.32557 1 1 1
2.03063 -1.05757 4.40866 1 1 1
1.98665 -1.02356 4.26064 1 1 1
2.04157 -1.0407 4.32606 1 1 1
2.07701 -1.04764 4.3495 1 1 1
2.11935 -1.05789 4.38711 1 1 1
3.15655 -1.55941 6.46054 1 1 1
2.17372 -1.06293 4.39993 1 1 1
2.17619 -1.05341 4.35746 1 1 1
2.1261 -1.01889 4.21234 1 1 1
2.24222 -1.06393 4.39677 1 1 1
2.21163 -1.03915 4.29333 1 1 1
2.13316 -0.992566 4.10055 0 0 0
2.38737 -1.10019 4.54554 1 1 1
3.24864 -1.48287 6.12808 0 0 0
3.4306 -1.55118 6.41297 0 0 0
2.3362 -1.04649 4.32884 1 1 1
1.14592 -0.508565 2.1052 0 0 0
0.251131 -0.110432 0.45753 0 0 0
0.187268 -0.0816019 0.338425 0 0 0
0.0874297 -0.0377549 0.156761 0 0 0
-1.87084 -0.787013 3.33782 0 0 0
-0.868014 -0.368446 1.56079 1 1 1
-3.26383 -1.39802 5.91605 1 1 1
-1.58185 -0.683793 2.89106 0 0 0
-1.24005 -0.541015 2.28572 1 1 1
-2.07284 -0.912817 3.8543 0 0 0
-2.23932 -0.995452 4.20144 0 0 0
-0.78318 -0.351472 1.48305 0 0 0
-2.25773 -1.02298 4.31605 0 0 0
-0.659317 -0.301643 1.27274 0 0 0
-0.847987 -0.391772 1.65341 0 0 0
-1.19398 -0.557095 2.35202 0 0 0
-2.77525 -1.30787 5.52474 0 0 0
-2.81947 -1.34216 5.67353 0 0 0
-0.0100041 -0.00481097 0.0203539 0 0 0
-2.4889 -1.20928 5.12117 1 1 1
-2.83425 -1.39145 5.89924 0 0 0
-0.589803 -0.292614 1.24212 1 1 1
-2.93275 -1.47051 6.2507 0 0 0
-2.98881 -1.51478 6.44832 0 0 0
-1.80167 -0.923065 3.93559 1 1 1
-1.75166 -0.907327 3.8749 0 0 0
-2.47983 -1.29881 5.55641 0 0 0
-2.48898 -1.31829 5.64986 0 0 0
-0.938836 -0.502918 2.15938 0 0 0
-1.72383 -0.934065 4.01822 1 1 1
-0.909116 -0.498351 2.14798 0 0 0
-1.58443 -0.878783 3.79514 1 1 1
-1.48415 -0.832988 3.60449 3 3 3
-1.44964 -0.823444 3.57027 4 4 4
-1.43946 -0.82766 3.59569 4 4 4
-1.43802 -0.837066 3.64377 3 3 3
-1.41042 -0.831295 3.62579 4 4 4
-1.38538 -0.826895 3.61366 4 4 4
-1.35739 -0.820605 3.59311 4 4 4
-1.35427 -0.829385 3.63849 6 6 6
-1.33346 -0.827415 3.63668 5 5 5
-1.30809 -0.822525 3.62186 5 5 5
-1.29891 -0.827821 3.65179 4 4 4
-1.28665 -0.831273 3.67353 4 4 4
-1.25872 -0.824556 3.65016 4 4 4
-1.25433 -0.833292 3.69509 3 3 3
-1.22222 -0.823593 3.65811 4 4 4
-1.20345 -0.822733 3.66017 4 4 4
-1.19754 -0.830774 3.70173 4 4 4
-1.17026 -0.824004 3.67715 5 5 5
-1.15143 -0.823066 3.67838 4 4 4
-1.1378 -0.825881 3.69625 4 4 4
-1.12272 -0.827712 3.70958 3 3 3
-1.09546 -0.820478 3.6821 4 4 4
-1.0904 -0.829899 3.72922 3 3 3
-1.07429 -0.831096 3.73929 3 3 3
-1.04943 -0.825443 3.71836 3 3 3
-1.04758 -0.838001 3.77936 2 2 2
-1.01457 -0.825642 3.72783 4 4 4
-1.00152 -0.82937 3.74874 4 4 4
-0.994595 -0.838402 3.79354 3 3 3
-0.971071 -0.833513 3.77523 3 3 3
-0.949114 -0.829813 3.76213 3 3 3
-0.927561 -0.826332 3.74985 4 4 4
-0.925552 -0.840464 3.81741 3 3 3
-0.899069 -0.832491 3.78446 3 3 3
-0.886224 -0.837081 3.80847 4 4 4
-1.29098 -1.24438 5.66607 1 1 1
-0.0845183 -0.0831727 0.379001 25 25 25
-0.0801651 -0.0805749 0.367431 51 51 51
-0.0775892 -0.0796891 0.363646 74 74 74
-0.0745354 -0.078262 0.357372 92 92 92
-0.0726353 -0.0780086 0.356443 100 100 100
-0.0708785 -0.0779011 0.356169 110 110 110
-0.0686789 -0.0772899 0.353581 115 115 115
-0.0668103 -0.0770305 0.352591 113 113 113
-0.0651162 -0.0769642 0.352475 103 103 103
-0.0633566 -0.0768151 0.35197 90 90 90
-0.0629009 -0.0782809 0.35886 77 77 77
-0.0599246 -0.0766041 0.351334 67 67 67
-0.0594476 -0.0781179 0.358434 54 54 54
-0.0576135 -0.0778842 0.35751 45 45 45
-0.0562967 -0.0783565 0.35982 39 39 39
-0.0537135 -0.0770414 0.353913 33 33 33
-0.0519476 -0.0768526 0.353171 30 30 30
-0.0500417 -0.0764377 0.351383 30 30 30
-0.0485363 -0.0766272 0.352366 25 25 25
-0.0473132 -0.0772911 0.355526 21 21 21
-0.0461187 -0.078051 0.359124 18 18 18
-0.0438836 -0.0770411 0.354573 17 17 17
-0.0404756 -0.0738137 0.339805 21 21 21
-0.0379592 -0.0720176 0.331615 40 40 40
-0.0361405 -0.0714497 0.329074 125 125 125
-0.0345465 -0.0712957 0.328434 234 234 234
-0.0333032 -0.0718845 0.331212 217 217 217
-0.031586 -0.0714578 0.329307 223 223 223
-0.0298158 -0.0708621 0.326618 136 136 136
-0.0287596 -0.0719904 0.331872 98 98 98
-0.0285275 -0.0754241 0.347754 105 105 105
-0.0268227 -0.0751415 0.3465 125 125 125
-0.0255077 -0.0759842 0.350431 132 132 132
-0.0237028 -0.0753825 0.347698 140 140 140
-0.0222183 -0.0757868 0.349601 138 138 138
-0.0207976 -0.076489 0.352876 131 131 131
-0.0191511 -0.0764094 0.35254 117 117 117
-0.0177828 -0.0775278 0.357731 110 110 110
-0.0164137 -0.0788712 0.363957 101 101 101
-0.0145552 -0.0779009 0.359503 89 89 89
-0.0128323 -0.0775004 0.357676 70 70 70
-0.0111529 -0.077283 0.356691 80 80 80
-0.00944827 -0.0767854 0.35441 65 65 65
-0.00783185 -0.0769468 0.355168 62 62 62
-0.00634267 -0.0787736 0.363611 47 47 47
-0.00473006 -0.0798287 0.36849 57 57 57
-0.00286517 -0.0754238 0.348162 132 132 132
-0.00127456 -0.0762174 0.351829 100 100 100
0.00034281 -0.0754694 0.348377 206 206 206
0.00240509 -0.093194 0.430194 297 297 297
0.0243647 -0.517599 2.38927 440 440 440
0.00633175 -0.0926541 0.427689 302 302 302
0.00715602 -0.0798641 0.368641 268 268 268
0.0089463 -0.0806937 0.372458 307 307 307
0.0112965 -0.0854941 0.394599 300 300 300
0.0124707 -0.0812967 0.375208 221 221 221
0.0135006 -0.0772953 0.356721 141 141 141
0.0152358 -0.0777623 0.358854 135 135 135
0.0170648 -0.0785699 0.362555 137 137 137
0.0186248 -0.0781054 0.360383 147 147 147
0.020378 -0.0784607 0.361991 153 153 153
0.0221456 -0.0788134 0.363584 151 151 151
0.0238763 -0.0789946 0.364381 151 151 151
0.0241331 -0.0745958 0.344052 205 205 205
0.0252809 -0.0733242 0.338145 91 91 91
0.0287962 -0.0786679 0.36274 39 39 39
0.0313754 -0.0810081 0.373476 85 85 85
0.0324034 -0.0793078 0.365581 147 147 147
0.0345977 -0.0804893 0.370965 161 161 161
0.0365243 -0.0809659 0.373095 154 154 154
0.0386052 -0.0817261 0.376526 141 141 141
0.0404638 -0.0819707 0.377577 126 126 126
0.042727 -0.0829807 0.382146 109 109 109
0.0444584 -0.0829188 0.381773 90 90 90
0.0468379 -0.0840243 0.386769 75 75 75
0.0489712 -0.0846231 0.389424 58 58 58
0.0520556 -0.0867647 0.399169 42 42 42
0.0546376 -0.087951 0.404509 32 32 32
0.0575731 -0.089609 0.412007 48 48 48
0.0606205 -0.0913292 0.419779 99 99 99
0.0623498 -0.0910186 0.418208 143 143 143
0.0649172 -0.0919132 0.422165 149 149 149
0.0679301 -0.0933679 0.428682 125 125 125
0.0709209 -0.0947105 0.434671 123 123 123
0.07328 -0.0951586 0.436542 140 140 140
0.0754491 -0.0953425 0.437191 137 137 137
0.0782597 -0.0963063 0.441403 137 137 137
0.08017 -0.0961412 0.440429 164 164 164
0.0824634 -0.0964322 0.441534 190 190 190
0.0847298 -0.0966785 0.442421 182 182 182
0.0858075 -0.0955888 0.437186 152 152 152
0.0909209 -0.0989413 0.45225 47 47 47
0.095505 -0.101579 0.464018 8 8 8
0.0969823 -0.100869 0.460474 2 2 2
0.103406 -0.105223 0.480021 1 1 1
0.0735882 -0.0732952 0.334132 1 1 1
1.28584 -1.25416 5.7131 0 0 0
0.527728 -0.504265 2.29531 0 0 0
0.547658 -0.512888 2.33267 2 2 2
0.590594 -0.542297 2.46435 1 1 1
1.07043 -0.964067 4.37715 1 1 1
0.618686 -0.546741 2.4801 1 1 1
1.106 -0.959361 4.34767 1 1 1
0.614964 -0.523766 2.37128 1 1 1
0.676579 -0.565993 2.55983 1 1 1
1.20144 -0.9875 4.46143 1 1 1
1.1857 -0.957825 4.32258 0 0 0
1.23218 -0.978559 4.41109 1 1 1
1.26026 -0.984238 4.43141 2 2 2
1.3023 -1.00046 4.4989 2 2 2
1.30811 -0.988766 4.44066 1 1 1
1.35261 -1.00623 4.51313 2 2 2
1.39579 -1.02218 4.57846 2 2 2
1.34516 -0.969995 4.3386 1 1 1
1.36277 -0.967851 4.32274 1 1 1
0.774597 -0.541942 2.41688 2 2 2
1.4368 -0.99051 4.41055 2 2 2
1.47244 -1.00042 4.44762 1 1 1
1.51652 -1.01569 4.50817 2 2 2
1.49796 -0.989169 4.38315 2 2 2
1.55485 -1.01252 4.47897 2 2 2
1.57298 -1.01034 4.46147 2 2 2
1.61612 -1.02406 4.51397 1 1 1
1.6018 -1.00149 4.40645 1 1 1
1.6116 -0.994395 4.3671 2 2 2
1.60616 -0.978201 4.28786 0 0 0
1.67886 -1.00941 4.41617 1 1 1
1.70714 -1.01345 4.42525 1 1 1
1.73946 -1.01977 4.4441 2 2 2
1.77455 -1.02753 4.46908 2 2 2
1.72069 -0.98422 4.27222 2 2 2
1.85566 -1.04867 4.54294 1 1 1
1.78965 -0.999355 4.32073 1 1 1
1.83991 -1.01536 4.3813 0 0 0
1.87832 -1.02454 4.41228 2 2 2
1.88239 -1.01499 4.36277 1 1 1
1.95299 -1.04112 4.46668 1 1 1
1.92596 -1.0152 4.34751 2 2 2
2.00931 -1.04739 4.47746 2 2 2
2.0164 -1.03956 4.43645 1 1 1
2.04466 -1.0427 4.44265 2 2 2
2.06677 -1.04267 4.43574 2 2 2
2.08136 -1.03889 4.41335 2 2 2
2.05709 -1.01599 4.31042 1 1 1
2.10746 -1.03005 4.36485 1 1 1
2.16022 -1.04497 4.42341 1 1 1
2.18222 -1.04487 4.41887 1 1 1
2.23305 -1.05843 4.47274 2 2 2
2.17143 -1.01895 4.3032 1 1 1
2.23944 -1.04048 4.39206 1 1 1
2.30005 -1.05819 4.46537 0 0 0
2.25055 -1.02538 4.32627 1 1 1
2.40481 -1.08515 4.57848 1 1 1
2.3243 -1.03885 4.38387 0 0 0
2.2467 -0.994716 4.19901 0 0 0
2.42332 -1.06291 4.48906 0 0 0
2.48185 -1.07852 4.55796 0 0 0
1.37543 -0.592238 2.50488 0 0 0
1.17003 -0.499225 2.11349 0 0 0
2.44696 -1.03467 4.38514 0 0 0
-0.774782 -0.319 1.38161 0 0 0
-1.85915 -0.772372 3.34144 1 1 1
-1.93461 -0.811045 3.50531 1 1 1
-1.95493 -0.827096 3.57173 0 0 0
-3.17398 -1.35531 5.84885 0 0 0
-2.21392 -0.954215 4.1158 0 0 0
-1.56059 -0.678981 2.9276 1 1 1
-0.550062 -0.241605 1.04154 0 0 0
-1.52827 -0.677732 2.92158 1 1 1
-1.38071 -0.618253 2.66554 1 1 1
-1.67086 -0.755529 3.25836 0 0 0
-2.34757 -1.07205 4.62555 0 0 0
-1.23369 -0.56903 2.45669 0 0 0
-2.88344 -1.34342 5.80446 0 0 0
-3.10369 -1.46083 6.3175 1 1 1
-2.14918 -1.02201 4.42447 0 0 0
-1.99611 -0.959137 4.15719 0 0 0
-0.582794 -0.282988 1.22816 0 0 0
-2.11088 -1.03591 4.50225 0 0 0
-0.331175 -0.164275 0.715059 0 0 0
-1.88035 -0.942888 4.11087 1 1 1
-1.76038 -0.892454 3.89762 0 0 0
-1.00743 -0.516421 2.25938 0 0 0
-0.971433 -0.503577 2.20724 1 1 1
-1.65379 -0.867069 3.80765 0 0 0
-1.71412 -0.909052 3.99972 0 0 0
-1.67601 -0.899203 3.96415 1 1 1
-1.54043 -0.836207 3.69374 1 1 1
-1.48699 -0.816836 3.61539 4 4 4
-1.44783 -0.804928 3.56981 4 4 4
-1.43894 -0.80977 3.59848 4 4 4
-1.42902 -0.814141 3.62511 3 3 3
-1.40676 -0.811501 3.62051 5 5 5
-1.39058 -0.812352 3.63141 5 5 5
-1.35443 -0.801403 3.5894 5 5 5
-1.3469 -0.80733 3.62284 3 3 3
-1.32159 -0.802613 3.60843 4 4 4
-1.30625 -0.803901 3.62087 5 5 5
-1.29657 -0.808762 3.64934 4 4 4
-1.27853 -0.808462 3.65442 4 4 4
-1.25745 -0.806208 3.65052 4 4 4
-1.23855 -0.805312 3.6526 4 4 4
-1.22414 -0.807348 3.66783 4 4 4
-1.21756 -0.814682 3.70706 5 5 5
-1.17927 -0.800699 3.64908 5 5 5
-1.17012 -0.806383 3.68051 4 4 4
-1.16191 -0.812898 3.71567 4 4 4
-1.14273 -0.811819 3.71599 4 4 4
-1.11168 -0.802141 3.67672 5 5 5
-1.10807 -0.812271 3.72809 4 4 4
-1.07181 -0.798409 3.66917 3 3 3
-1.07215 -0.811796 3.73532 4 4 4
-1.04583 -0.805119 3.70902 3 3 3
-1.03487 -0.810227 3.73687 4 4 4
-1.01879 -0.811444 3.74664 3 3 3
-1.00259 -0.812604 3.75602 3 3 3
-0.976646 -0.805765 3.72825 4 4 4
-0.968413 -0.813555 3.76804 3 3 3
-0.940285 -0.804612 3.73018 4 4 4
-0.930606 -0.811415 3.76517 4 4 4
-0.916195 -0.814276 3.78178 3 3 3
-0.895074 -0.811169 3.77053 4 4 4
-0.88768 -0.820625 3.81759 3 3 3
-1.29132 -1.21825 5.67175 1 1 1
-0.0835229 -0.0804453 0.374806 23 23 23
-0.0800203 -0.078719 0.367025 47 47 47
-0.0777705 -0.0781768 0.364746 59 59 59
-0.0747959 -0.0768654 0.358862 62 62 62
-0.0721281 -0.0758166 0.354186 51 51 51
-0.0710818 -0.0764632 0.35742 48 48 48
-0.0694968 -0.0765472 0.358016 37 37 37
-0.0691512 -0.078034 0.365169 27 27 27
-0.0654461 -0.0757091 0.354472 21 21 21
-0.0650282 -0.0771652 0.361468 20 20 20
-0.0623725 -0.0759726 0.356048 19 19 19
-0.0595391 -0.0744929 0.349269 19 19 19
-0.0599745 -0.0771343 0.361808 20 20 20
-0.0585099 -0.077414 0.363266 21 21 21
-0.0559552 -0.0762251 0.357824 21 21 21
-0.053354 -0.0748984 0.351723 21 21 21
-0.0498787 -0.0722226 0.339274 17 17 17
-0.0486763 -0.0727709 0.341961 15 15 15
-0.047105 -0.0727861 0.342138 15 15 15
-0.0454142 -0.0726113 0.341415 13 13 13
-0.0442399 -0.0732792 0.344651 13 13 13
-0.0424438 -0.0729289 0.343091 14 14 14
-0.0401612 -0.0716828 0.337312 17 17 17
-0.0382265 -0.0709824 0.334092 29 29 29
-0.0362768 -0.0701939 0.330453 77 77 77
-0.0341787 -0.0690366 0.32507 149 149 149
-0.0327707 -0.0692309 0.326047 177 177 177
-0.0311492 -0.068971 0.32488 165 165 165
-0.0300966 -0.0700083 0.329821 119 119 119
-0.0285698 -0.0699944 0.329806 107 107 107
-0.0283909 -0.0734667 0.346217 112 112 112
-0.0268645 -0.073658 0.347165 134 134 134
-0.0255039 -0.0743571 0.350503 147 147 147
-0.0237128 -0.0738109 0.347968 148 148 148
-0.0221578 -0.0739734 0.34877 139 139 139
-0.0208232 -0.0749548 0.353432 117 117 117
-0.0194283 -0.0758671 0.357764 104 104 104
-0.0178016 -0.0759595 0.358229 104 104 104
-0.0160502 -0.0754846 0.356014 117 117 117
-0.0144225 -0.0755492 0.356342 97 97 97
-0.0128865 -0.0761723 0.359301 83 83 83
-0.0111144 -0.0753782 0.355573 81 81 81
-0.00943241 -0.0750264 0.353928 66 66 66
-0.00776555 -0.0746729 0.352272 63 63 63
-0.00644735 -0.0783709 0.369728 40 40 40
-0.0048026 -0.0793292 0.374257 51 51 51
-0.00283718 -0.0730986 0.344868 141 141 141
-0.00130958 -0.0766466 0.36161 78 78 78
0.000331835 -0.0714997 0.337328 217 217 217
0.00204327 -0.0774903 0.365589 265 265 265
0.00493043 -0.102514 0.483643 303 303 303
0.00593361 -0.0849817 0.400921 253 253 253
0.00679605 -0.0742338 0.350207 211 211 211
0.00825684 -0.0728912 0.343862 269 269 269
0.00999414 -0.0740289 0.349216 269 269 269
0.0119353 -0.0761519 0.359215 159 159 159
0.0131897 -0.0739096 0.34862 141 141 141
0.0150272 -0.075067 0.354058 140 140 140
0.0167825 -0.0756271 0.356676 141 141 141
0.0187297 -0.076875 0.362534 134 134 134
0.0202716 -0.0763912 0.360223 143 143 143
0.0221575 -0.0771789 0.363904 142 142 142
0.023541 -0.0762289 0.359389 142 142 142
0.0244068 -0.0738376 0.348077 173 173 173
0.0253208 -0.0718783 0.338801 88 88 88
0.0290467 -0.0776649 0.36603 38 38 38
0.0310944 -0.0785751 0.370268 83 83 83
0.032476 -0.0777953 0.366539 139 139 139
0.03455 -0.0786689 0.370597 158 158 158
0.0362999 -0.0787571 0.370949 154 154 154
0.0381231 -0.0789893 0.371975 139 139 139
0.0405686 -0.0804353 0.37871 123 123 123
0.042154 -0.080127 0.37718 112 112 112
0.0448131 -0.0818031 0.384985 95 95 95
0.047088 -0.0826767 0.389005 81 81 81
0.0497427 -0.0841285 0.395737 65 65 65
0.0517987 -0.0845005 0.397381 44 44 44
0.0551342 -0.0868631 0.408377 33 33 33
0.0587865 -0.0895518 0.420892 43 43 43
0.0605039 -0.0892152 0.419178 91 91 91
0.0625239 -0.0893318 0.419586 125 125 125
0.0650383 -0.0901265 0.42317 135 135 135
0.0684918 -0.0921381 0.432454 114 114 114
0.0708322 -0.0925805 0.434361 138 138 138
0.0732982 -0.0931582 0.436891 149 149 149
0.0755369 -0.0934236 0.437946 140 140 140
0.078572 -0.0946345 0.44342 131 131 131
0.0802056 -0.0941385 0.440885 150 150 150
0.0817774 -0.0935965 0.438126 179 179 179
0.0847947 -0.0946951 0.443035 179 179 179
0.0859474 -0.0937087 0.438177 156 156 156
0.0909245 -0.0968411 0.452561 52 52 52
0.0945817 -0.0984579 0.459836 9 9 9
0.0941646 -0.0958557 0.447399 2 2 2
0.0931959 -0.0928167 0.432926 1 1 1
0.0970426 -0.0946008 0.44094 0 0 0
0.129128 -0.123268 0.574143 0 0 0
0.574486 -0.537271 2.50054 0 0 0
0.584996 -0.536205 2.4936 1 1 1
0.571966 -0.514025 2.38847 1 1 1
0.564474 -0.497576 2.31005 1 1 1
0.620821 -0.536962 2.49067 1 1 1
0.601095 -0.51031 2.36484 1 1 1
0.602907 -0.502579 2.32675 1 1 1
0.636046 -0.52077 2.40854 1 1 1
1.19179 -0.95874 4.42949 1 1 1
1.21601 -0.961419 4.43703 1 1 1
0.657908 -0.511379 2.35739 1 1 1
0.726557 -0.55536 2.55714 1 1 1
1.34232 -1.00927 4.64153 1 1 1
1.29901 -0.961003 4.414 2 2 2
1.35605 -0.987337 4.52906 2 2 2
1.37915 -0.988513 4.52836 1 1 1
1.39097 -0.9817 4.49091 2 2 2
1.39534 -0.969914 4.43063 1 1 1
1.45765 -0.998149 4.55287 1 1 1
1.46512 -0.988557 4.50226 1 1 1
1.47968 -0.983959 4.47429 2 2 2
1.5211 -0.997094 4.52672 2 2 2
1.51552 -0.979485 4.43942 3 3 3
1.58632 -1.01105 4.5747 1 1 1
1.58348 -0.99545 4.49629 2 2 2
1.61678 -1.00269 4.52094 2 2 2
1.60918 -0.984706 4.43178 2 2 2
1.69384 -1.02291 4.5952 1 1 1
1.68312 -1.00328 4.49849 2 2 2
1.66776 -0.981408 4.392 2 2 2
1.73818 -1.00994 4.5109 1 1 1
1.78329 -1.02323 4.56129 2 2 2
1.77368 -1.00518 4.47196 1 1 1
1.79435 -1.00453 4.46014 1 1 1
1.85195 -1.02432 4.53891 3 3 3
1.77463 -0.969895 4.28918 1 1 1
1.87302 -1.01166 4.46495 1 1 1
1.92775 -1.02914 4.53317 1 1 1
1.04684 -0.552456 2.42873 2 2 2
1.98944 -1.03799 4.55455 2 2 2
1.94701 -1.00447 4.39921 1 1 1
2.01994 -1.03054 4.50524 2 2 2
1.9784 -0.998284 4.3566 1 1 1
2.03884 -1.01762 4.43358 1 1 1
2.05505 -1.01471 4.41391 1 1 1
2.92503 -1.42895 6.20657 0 0 0
1.17664 -0.568777 2.46706 2 2 2
2.15279 -1.02983 4.46124 2 2 2
2.22709 -1.05441 4.56258 1 1 1
1.16992 -0.548255 2.37001 1 1 1
2.26021 -1.04852 4.52872 2 2 2
2.29687 -1.05489 4.55304 1 1 1
2.22443 -1.01153 4.36348 1 1 1
2.3537 -1.05984 4.57011 1 1 1
2.37421 -1.05872 4.56421 1 1 1
2.36316 -1.04368 4.49907 1 1 1
2.43042 -1.06318 4.5836 0 0 0
2.32333 -1.00677 4.34152 1 1 1
2.47824 -1.06388 4.58973 1 1 1
2.45961 -1.04612 4.51576 1 1 1
2.62132 -1.1047 4.77212 0 0 0
2.5484 -1.06422 4.60137 1 1 1
1.34755 -0.557682 2.41376 0 0 0
-0.915183 -0.36862 1.6312 0 0 0
-0.838153 -0.340641 1.50578 0 0 0
-0.901679 -0.369797 1.63316 0 0 0
-1.8914 -0.782831 3.45462 0 0 0
-1.84733 -0.771684 3.40336 0 0 0
-1.44278 -0.608336 2.68174 1 1 1
-3.16974 -1.34913 5.9457 0 0 0
-2.94618 -1.26594 5.57843 0 0 0
-1.18901 -0.515829 2.27312 0 0 0
-0.142102 -0.0622476 0.274366 0 0 0
-2.97073 -1.31411 5.79431 0 0 0
-2.81779 -1.25883 5.5535 0 0 0
-3.20272 -1.44513 6.3798 0 0 0
-1.97512 -0.900234 3.97759 1 1 1
-1.993 -0.917674 4.05864 1 1 1
-0.811375 -0.377456 1.67127 0 0 0
-1.86151 -0.875026 3.87922 1 1 1
-2.05697 -0.977106 4.33772 0 0 0
-2.87044 -1.37806 6.12678 0 0 0
-2.11172 -1.02474 4.56313 0 0 0
-2.84429 -1.39526 6.22346 1 1 1
-0.912649 -0.452629 2.02246 0 0 0
-1.80884 -0.907086 4.06047 0 0 0
-1.82229 -0.924125 4.14451 0 0 0
-1.78944 -0.917804 4.12408 1 1 1
-1.68818 -0.875843 3.94324 0 0 0
-0.85484 -0.448669 2.02402 1 1 1
-1.54181 -0.818775 3.70104 2 2 2
-1.48227 -0.79655 3.60783 4 4 4
-1.45891 -0.793465 3.60111 4 4 4
-1.43703 -0.791124 3.5977 4 4 4
-1.41785 -0.790225 3.6008 4 4 4
-1.38856 -0.7836 3.57769 4 4 4
-1.37667 -0.78675 3.59912 5 5 5
-1.37324 -0.794879 3.64333 5 5 5
-1.35247 -0.793055 3.6419 5 5 5
-1.32788 -0.788907 3.62962 5 5 5
-1.30906 -0.788129 3.63269 5 5 5
-1.27822 -0.779991 3.60164 4 4 4
-1.27496 -0.788689 3.64819 4 4 4
-1.26345 -0.792456 3.67189 4 4 4
-1.23551 -0.785881 3.64751 4 4 4
-1.21722 -0.785343 3.65093 4 4 4
-1.21351 -0.794326 3.69853 5 5 5
-1.18518 -0.787228 3.67111 4 4 4
-1.17847 -0.794496 3.71052 5 5 5
-1.15573 -0.791008 3.69957 4 4 4
-1.13702 -0.790211 3.70101 4 4 4
-1.12336 -0.792958 3.71891 4 4 4
-1.09176 -0.78293 3.67669 4 4 4
-1.07942 -0.786603 3.69861 3 3 3
-1.07053 -0.792961 3.73306 4 4 4
-1.0442 -0.786393 3.70651 4 4 4
-1.0355 -0.793107 3.7424 3 3 3
-1.01544 -0.791203 3.73751 4 4 4
-0.996351 -0.79 3.73576 4 4 4
-0.977327 -0.788807 3.73391 4 4 4
-0.958291 -0.787561 3.73165 5 5 5
-0.950737 -0.79588 3.77461 4 4 4
-0.93118 -0.794275 3.77039 3 3 3
-0.915648 -0.796109 3.78236 3 3 3
-0.907645 -0.804689 3.8263 4 4 4
-0.879244 -0.795167 3.78403 2 2 2
-0.881272 -0.813338 3.87345 1 1 1
-0.0819747 -0.0772388 0.368112 17 17 17
-0.0781168 -0.0751769 0.358535 25 25 25
-0.0799476 -0.0786192 0.375203 19 19 19
-0.0747627 -0.075162 0.358933 17 17 17
-0.0742539 -0.0763554 0.364854 15 15 15
-0.0715107 -0.0752531 0.359796 17 17 17
-0.0714729 -0.0770134 0.368417 19 19 19
-0.0689396 -0.076105 0.364264 23 23 23
-0.0669968 -0.0758191 0.363078 26 26 26
-0.0656481 -0.0762083 0.365117 29 29 29
-0.0635393 -0.0757123 0.362906 32 32 32
-0.0612714 -0.0749946 0.359622 39 39 39
-0.0577976 -0.0727195 0.348856 36 36 36
-0.0576502 -0.0746192 0.358109 36 36 36
-0.0565688 -0.0753867 0.361926 39 39 39
-0.0542832 -0.0745472 0.358021 40 40 40
-0.0521162 -0.0738229 0.354661 34 34 34
-0.0498885 -0.0729627 0.350638 19 19 19
-0.0473822 -0.0716236 0.344306 12 12 12
-0.0457626 -0.0715785 0.344185 12 12 12
-0.0447246 -0.0724726 0.348577 12 12 12
-0.0429419 -0.0721815 0.347263 12 12 12
-0.0419325 -0.0732183 0.352333 14 14 14
-0.0378664 -0.068786 0.331077 21 21 21
-0.0362928 -0.0686992 0.330728 50 50 50
-0.0344493 -0.0680713 0.327769 93 93 93
-0.0326576 -0.0674929 0.325043 112 112 112
-0.0311401 -0.0674528 0.324905 127 127 127
-0.0304177 -0.069218 0.33346 93 93 93
-0.0286463 -0.0686569 0.330806 79 79 79
-0.0282439 -0.0714983 0.344543 98 98 98
-0.026672 -0.0715413 0.344794 130 130 130
-0.0252819 -0.0721085 0.347569 145 145 145
-0.0239701 -0.0729905 0.351858 142 142 142
-0.0224854 -0.0734362 0.354042 126 126 126
-0.0208448 -0.0734022 0.35391 103 103 103
-0.0194397 -0.0742621 0.358086 100 100 100
-0.0177663 -0.0741619 0.357629 107 107 107
-0.016104 -0.0740918 0.357315 110 110 110
-0.0144563 -0.0740808 0.357284 90 90 90
-0.0130949 -0.0757228 0.365222 73 73 73
-0.0112796 -0.0748367 0.360965 81 81 81
-0.00941241 -0.0732407 0.353281 72 72 72
-0.00776664 -0.0730608 0.352425 67 67 67
-0.00619222 -0.0736343 0.355201 61 61 61
-0.00466127 -0.075322 0.363349 54 54 54
-0.00294056 -0.0741162 0.357538 70 70 70
-0.00128445 -0.0735423 0.354772 79 79 79
0.000346202 -0.0729745 0.352033 106 106 106
0.00190843 -0.0708041 0.341561 202 202 202
0.00352444 -0.0716883 0.345824 273 273 273
0.00519274 -0.0727551 0.350964 187 187 187
0.0067577 -0.0722111 0.348332 176 176 176
0.00839519 -0.0725022 0.349726 213 213 213
0.00999012 -0.0723913 0.349178 196 196 196
0.0117865 -0.0735686 0.354842 145 145 145
0.0135469 -0.0742616 0.358167 127 127 127
0.015211 -0.0743341 0.358497 128 128 128
0.0169156 -0.0745707 0.359615 128 128 128
0.0187648 -0.0753457 0.363326 127 127 127
0.0204878 -0.0755285 0.36418 127 127 127
0.0222426 -0.0757921 0.365419 130 130 130
0.0237812 -0.0753338 0.363175 132 132 132
0.0247978 -0.0733905 0.35377 152 152 152
0.0250448 -0.0695501 0.33522 75 75 75
0.0289382 -0.0756936 0.364787 34 34 34
0.0313182 -0.0774211 0.373063 76 76 76
0.0326787 -0.0765799 0.368958 128 128 128
0.0343074 -0.0764193 0.368128 146 146 146
0.036163 -0.0767555 0.369687 148 148 148
0.0385157 -0.0780689 0.375948 135 135 135
0.0407089 -0.0789597 0.380167 122 122 122
0.0428283 -0.07964 0.383365 115 115 115
0.0444778 -0.0794268 0.382258 101 101 101
0.0467726 -0.0803386 0.386559 87 87 87
0.0490434 -0.0811436 0.390338 72 72 72
0.0522679 -0.0834134 0.401155 51 51 51
0.0543113 -0.0837075 0.40246 37 37 37
0.0585736 -0.0872889 0.419558 37 37 37
0.0610046 -0.0879991 0.422844 78 78 78
0.0629081 -0.0879279 0.422365 111 111 111
0.0657486 -0.0891312 0.428 123 123 123
0.0688148 -0.0905613 0.434711 115 115 115
0.0705691 -0.0902326 0.432969 145 145 145
0.0733429 -0.0911897 0.437387 155 155 155
0.0755688 -0.0914324 0.438366 143 143 143
0.0782566 -0.0922067 0.441883 128 128 128
0.0802123 -0.0921008 0.44117 133 133 133
0.0817138 -0.0914917 0.438037 165 165 165
0.0845043 -0.0923204 0.441778 169 169 169
0.0867608 -0.0925402 0.442591 148 148 148
0.0911757 -0.0949988 0.454092 52 52 52
0.0965841 -0.0983579 0.469869 9 9 9
0.102708 -0.102281 0.488307 2 2 2
0.0665416 -0.064831 0.309313 2 2 2
0.540597 -0.515544 2.45802 1 1 1
0.480213 -0.44846 2.13666 0 0 0
1.29373 -1.18363 5.63513 0 0 0
1.06127 -0.951621 4.52704 2 2 2
1.08248 -0.951684 4.52368 1 1 1
1.0806 -0.931839 4.42561 1 1 1
1.13049 -0.956542 4.53894 2 2 2
1.13941 -0.946308 4.48626 2 2 2
1.18239 -0.964214 4.56679 2 2 2
1.20556 -0.96562 4.56891 1 1 1
1.1985 -0.94319 4.45818 1 1 1
1.25014 -0.966925 4.56548 2 2 2
1.29165 -0.982161 4.63226 2 2 2
0.714281 -0.534114 2.51619 1 1 1
1.335 -0.981957 4.62042 1 1 1
1.3134 -0.95054 4.46705 1 1 1
0.770434 -0.548762 2.57559 1 1 1
1.39592 -0.978795 4.58784 1 1 1
1.3935 -0.962116 4.50348 2 2 2
1.44243 -0.980861 4.58472 1 1 1
1.45896 -0.977339 4.56157 1 1 1
1.45549 -0.960724 4.47727 3 3 3
1.50934 -0.981873 4.56873 2 2 2
1.53377 -0.983555 4.56924 2 2 2
1.56684 -0.990652 4.59466 1 1 1
1.60662 -1.00174 4.63825 1 1 1
1.61156 -0.99109 4.58101 2 2 2
1.63428 -0.991524 4.57491 2 2 2
1.64146 -0.982639 4.52572 2 2 2
1.66158 -0.98163 4.51272 2 2 2
1.70487 -0.994161 4.56173 1 1 1
0.923871 -0.531849 2.43573 2 2 2
1.76294 -1.00206 4.58029 1 1 1
1.77945 -0.998842 4.55658 2 2 2
1.78747 -0.990988 4.51177 2 2 2
1.78369 -0.976864 4.43856 0 0 0
1.81409 -0.981575 4.45101 2 2 2
1.88015 -1.00524 4.54913 2 2 2
1.98191 -1.04721 4.72958 1 1 1
1.89293 -0.988592 4.45592 2 2 2
1.94257 -1.00288 4.51142 1 1 1
2.02674 -1.03448 4.64451 1 1 1
1.96554 -0.991998 4.44531 2 2 2
1.99549 -0.995949 4.45476 2 2 2
2.02468 -0.999436 4.46236 3 3 3
2.08897 -1.01999 4.54631 2 2 2
2.11676 -1.02247 4.54992 1 1 1
2.1819 -1.04275 4.633 1 1 1
2.20288 -1.04172 4.62178 1 1 1
2.17554 -1.0181 4.51102 1 1 1
2.27356 -1.05302 4.66018 0 0 0
2.34516 -1.07513 4.75293 1 1 1
3.14325 -1.42649 6.3004 0 0 0
2.26497 -1.01764 4.49117 1 1 1
2.35943 -1.04961 4.62936 0 0 0
2.36977 -1.04389 4.60202 0 0 0
0.100109 -0.0436714 0.192467 1 1 1
2.30035 -0.993867 4.37953 1 1 1
2.36923 -1.0139 4.46793 1 1 1
2.40363 -1.01893 4.49097 1 1 1
1.43222 -0.601479 2.65197 1 1 1
2.56954 -1.06913 4.71634 1 1 1
2.50421 -1.03241 4.55742 0 0 0
2.47296 -1.01028 4.46343 0 0 0
0.0973698 -0.0394208 0.174333 1 1 1
-0.824363 -0.324664 1.46867 1 1 1
-0.82331 -0.327177 1.47854 1 1 1
-0.880602 -0.353131 1.59445 1 1 1
-0.896569 -0.362839 1.63713 0 0 0
-0.914387 -0.373483 1.68424 0 0 0
-0.88028 -0.362919 1.63598 0 0 0
-2.18587 -0.909703 4.0999 0 0 0
-2.1652 -0.909702 4.09968 0 0 0
-2.10249 -0.891863 4.01976 0 0 0
-0.83669 -0.358372 1.61569 0 0 0
-0.670853 -0.290163 1.30876 0 0 0
-3.0426 -1.32907 5.99828 1 1 1
-0.218765 -0.0965187 0.435934 0 0 0
-1.14268 -0.509251 2.30216 1 1 1
-0.653719 -0.294319 1.33192 0 0 0
-1.41577 -0.643997 2.91784 0 0 0
-0.637811 -0.293152 1.32997 0 0 0
-2.81585 -1.30788 5.9421 0 0 0
-0.640695 -0.300758 1.36854 1 1 1
-2.09054 -0.991925 4.52094 1 1 1
-0.979825 -0.469976 2.14572 1 1 1
-0.792957 -0.384533 1.75878 0 0 0
-1.78654 -0.876007 4.01413 0 0 0
-1.76094 -0.873182 4.00884 1 1 1
-1.69484 -0.849978 3.90993 1 1 1
-1.65119 -0.837626 3.86077 0 0 0
-0.853675 -0.438106 2.02337 0 0 0
-1.50951 -0.783817 3.62734 2 2 2
-1.47893 -0.777106 3.60358 3 3 3
-1.46109 -0.777006 3.61042 4 4 4
-1.4263 -0.767775 3.57473 4 4 4
-1.42073 -0.774244 3.61208 4 4 4
-1.39964 -0.77231 3.61021 5 5 5
-1.39211 -0.777908 3.6435 5 5 5
-1.35657 -0.767791 3.60306 4 4 4
-1.34584 -0.77164 3.628 5 5 5
-1.32538 -0.769935 3.62673 5 5 5
-1.31674 -0.775144 3.65793 4 4 4
-1.29183 -0.770787 3.64386 4 4 4
-1.27416 -0.770687 3.64975 4 4 4
-1.25656 -0.770633 3.6557 4 4 4
-1.24134 -0.772052 3.66849 4 4 4
-1.21696 -0.767733 3.65385 4 4 4
-1.20936 -0.77403 3.68959 4 4 4
-1.1793 -0.765929 3.65653 4 4 4
-1.18168 -0.778963 3.72423 5 5 5
-1.14438 -0.765842 3.66673 4 4 4
-1.12762 -0.766275 3.67388 5 5 5
-1.11417 -0.769002 3.69188 4 4 4
-1.10235 -0.772962 3.71569 5 5 5
-1.07731 -0.767631 3.69467 4 4 4
-1.06467 -0.771108 3.71588 4 4 4
-1.04651 -0.770629 3.71789 4 4 4
-1.0266 -0.768826 3.71334 4 4 4
-1.01289 -0.771687 3.73118 4 4 4
-1.0019 -0.776758 3.7596 4 4 4
-0.984368 -0.776845 3.76377 3 3 3
-0.960335 -0.771712 3.74249 4 4 4
-0.945297 -0.773751 3.75584 3 3 3
-0.924589 -0.771137 3.74646 3 3 3
-0.917187 -0.779736 3.79145 1 1 1
-1.33141 -1.15417 5.61671 1 1 1
-0.0797982 -0.0705647 0.343667 6 6 6
-0.0821114 -0.0740986 0.361147 9 9 9
-0.0770073 -0.0709468 0.346033 12 12 12
-0.0771364 -0.0725847 0.354263 14 14 14
-0.0785618 -0.0755405 0.36893 15 15 15
-0.0779972 -0.0766722 0.374691 21 21 21
-0.0747181 -0.0751263 0.367354 26 26 26
-0.0730751 -0.0751915 0.367882 34 34 34
-0.0703163 -0.0740843 0.362661 41 41 41
-0.0681789 -0.0735936 0.360445 44 44 44
-0.065818 -0.0728308 0.356884 47 47 47
-0.0654103 -0.0742458 0.363987 40 40 40
-0.062041 -0.072285 0.354532 41 41 41
-0.0618546 -0.074027 0.363228 39 39 39
-0.0596677 -0.0734052 0.360321 35 35 35
-0.0580999 -0.0735311 0.361076 36 36 36
-0.056275 -0.0733295 0.360215 43 43 43
-0.0545683 -0.0732743 0.360066 50 50 50
-0.0524676 -0.07267 0.357211 48 48 48
-0.0501955 -0.0717813 0.35295 31 31 31
-0.0471167 -0.0696405 0.342522 13 13 13
-0.0451891 -0.0691117 0.340012 12 12 12
-0.0433737 -0.0687226 0.338184 12 12 12
-0.0414755 -0.0681683 0.335536 11 11 11
-0.0401863 -0.0686109 0.337791 12 12 12
-0.0395652 -0.0702757 0.34606 14 14 14
-0.0358128 -0.0662849 0.326473 26 26 26
-0.0349582 -0.0675427 0.33273 43 43 43
-0.0331573 -0.0670038 0.330132 63 63 63
-0.0315368 -0.0667949 0.329157 77 77 77
-0.0297761 -0.066253 0.326535 83 83 83
-0.0286493 -0.0671392 0.33095 74 74 74
-0.0279594 -0.0692063 0.341183 85 85 85
-0.0266309 -0.0698447 0.344372 114 114 114
-0.0254124 -0.0708708 0.34947 137 137 137
-0.0237974 -0.0708553 0.34943 135 135 135
-0.0223029 -0.0712223 0.351273 117 117 117
