ply
format ascii 1.0
comment Generated by royaleviewer 3.20.062
element vertex 1471
property float x
property float y
property float z
property uchar red
property uchar green
property uchar blue
element face 0
property list uchar int vertex_index
end_header
0.0835179 0.114871 0.824612 46 46 46
0.0874297 0.114968 0.825256 42 42 42
0.0925461 0.116575 0.836725 34 34 34
0 0 0 0 0 0
0 0 0 0 0 0
0 0 0 0 0 0
0 0 0 0 0 0
0 0 0 0 0 0
0.121537 0.122231 0.876736 18 18 18
0 0 0 0 0 0
0 0 0 0 0 0
0 0 0 0 0 0
0 0 0 0 0 0
0 0 0 0 0 0
0 0 0 0 0 0
0 0 0 0 0 0
0 0 0 0 0 0
0 0 0 0 0 0
0 0 0 0 0 0
0 0 0 0 0 0
0 0 0 0 0 0
0.188411 0.131884 0.942973 19 19 19
0 0 0 0 0 0
0 0 0 0 0 0
0 0 0 0 0 0
0.206335 0.132077 0.942782 16 16 16
0.218216 0.136757 0.975724 17 17 17
0.224755 0.137967 0.983857 18 18 18
0 0 0 0 0 0
0 0 0 0 0 0
0 0 0 0 0 0
0.263726 0.149617 1.06446 29 29 29
0.27095 0.150856 1.07257 15 15 15
0.274157 0.149854 1.06471 15 15 15
0.277197 0.148799 1.05644 21 21 21
0 0 0 0 0 0
0.292007 0.151322 1.07268 28 28 28
0.295666 0.15061 1.06674 18 18 18
0.299997 0.15026 1.06333 27 27 27
0.298753 0.147174 1.04054 51 51 51
0.306935 0.148756 1.05073 47 47 47
0.312407 0.148996 1.05137 57 57 57
0.32089 0.150642 1.06188 42 42 42
0.324724 0.150088 1.05684 29 29 29
0.328542 0.149543 1.05182 22 22 22
0.334403 0.149931 1.05332 24 24 24
0.338946 0.149725 1.05059 30 30 30
0.342241 0.148982 1.04406 37 37 37
0.343233 0.147273 1.03073 51 51 51
0.348112 0.147255 1.02921 39 39 39
0.353727 0.147545 1.0298 42 42 42
0.358072 0.147305 1.02663 44 44 44
0.361543 0.146717 1.021 37 37 37
0.363987 0.145733 1.01259 31 31 31
0.370038 0.1462 1.01421 22 22 22
0.37718 0.147081 1.01865 38 38 38
0.381915 0.147012 1.01646 55 55 55
0.385105 0.146358 1.01018 30 30 30
0.389715 0.146253 1.00767 38 38 38
0.394519 0.146223 1.00563 50 50 50
0.397197 0.145415 0.998218 71 71 71
0.399636 0.14454 0.990336 79 79 79
0.403128 0.144062 0.985162 92 92 92
0.406668 0.143613 0.980166 122 122 122
0.407338 0.142172 0.968407 126 126 126
0.410075 0.141478 0.961747 123 123 123
0.410747 0.140095 0.950422 126 126 126
0.414922 0.139925 0.947341 100 100 100
0.417844 0.13934 0.941467 114 114 114
0.419581 0.138378 0.933071 96 96 96
0.426816 0.13923 0.936929 69 69 69
0.43305 0.139741 0.938497 73 73 73
0.439002 0.14015 0.939407 71 71 71
0.44155 0.139476 0.933103 61 61 61
0.438697 0.137128 0.91569 54 54 54
0.455898 0.141032 0.940074 51 51 51
0.461031 0.141161 0.939323 13 13 13
0.888642 0.269335 1.78931 7 7 7
0.900261 0.270121 1.79181 23 23 23
0.913158 0.271272 1.7969 26 26 26
0.916379 0.269554 1.78323 24 24 24
0.924599 0.269325 1.77966 24 24 24
0.93761 0.270483 1.7855 23 23 23
0.945561 0.270173 1.78192 23 23 23
0.950955 0.269145 1.77389 24 24 24
0.957661 0.268504 1.76871 20 20 20
0.963572 0.267654 1.76245 26 26 26
0.954167 0.262605 1.72885 25 25 25
-0.724495 0.196185 1.25252 4 4 4
0 0 0 0 0 0
-0.721474 0.198848 1.26777 2 2 2
-0.720684 0.200416 1.2772 5 5 5
-0.710034 0.199246 1.2694 4 4 4
-0.72066 0.204079 1.30006 2 2 2
-0.70178 0.200568 1.2778 8 8 8
-0.686619 0.198065 1.26216 3 3 3
-0.682296 0.198671 1.26654 7 7 7
-0.682879 0.20073 1.28041 6 6 6
-0.675731 0.200534 1.28011 5 5 5
-0.684415 0.205079 1.31029 8 8 8
-0.668099 0.202148 1.29291 8 8 8
-0.660698 0.201884 1.29274 5 5 5
-0.658811 0.203316 1.30362 8 8 8
-0.656148 0.204534 1.31332 10 10 10
-0.641918 0.202135 1.29992 7 7 7
-0.62237 0.197995 1.27538 12 12 12
-0.605396 0.194596 1.25565 13 13 13
0 0 0 0 0 0
0 0 0 0 0 0
-0.434802 0.144258 0.936051 146 146 146
-0.425839 0.142816 0.928511 180 180 180
-0.420519 0.142578 0.928805 186 186 186
-0.413969 0.141913 0.926331 201 201 201
-0.40735 0.141209 0.923601 203 203 203
-0.404725 0.141889 0.92993 135 135 135
0 0 0 0 0 0
-0.556136 0.199492 1.31274 15 15 15
-0.554647 0.201292 1.32724 10 10 10
-0.564353 0.207246 1.36919 14 14 14
-0.560224 0.208201 1.37818 13 13 13
-0.552826 0.20795 1.37916 10 10 10
-0.551863 0.210143 1.39633 12 12 12
-0.547929 0.211246 1.40624 11 11 11
-0.544618 0.212619 1.41794 13 13 13
-0.534666 0.211402 1.4123 15 15 15
-0.531768 0.212978 1.42528 10 10 10
-0.532237 0.215962 1.44767 9 9 9
-0.526333 0.216405 1.453 10 10 10
-0.518181 0.215923 1.45206 10 10 10
-0.515236 0.217628 1.46576 11 11 11
-0.514776 0.220444 1.48693 11 11 11
-0.509972 0.221452 1.49588 9 9 9
-0.502582 0.22135 1.49727 11 11 11
-0.49251 0.220047 1.49045 13 13 13
-0.482052 0.218531 1.4821 8 8 8
-0.470175 0.216317 1.46892 8 8 8
-0.464258 0.216819 1.47411 8 8 8
-0.46228 0.219205 1.49205 8 8 8
-0.456723 0.219941 1.49873 8 8 8
-0.453658 0.22192 1.51383 7 7 7
-0.449676 0.223507 1.52623 9 9 9
-0.448966 0.226798 1.55023 6 6 6
-0.440986 0.226465 1.54942 6 6 6
-0.429102 0.224082 1.5345 9 9 9
-0.414949 0.220412 1.51068 7 7 7
-0.419791 0.22688 1.55629 7 7 7
-0.410431 0.225766 1.54988 6 6 6
-0.404647 0.226614 1.55687 7 7 7
-0.395584 0.225623 1.55119 7 7 7
-0.386182 0.224398 1.54382 4 4 4
-0.380551 0.225359 1.55145 5 5 5
-0.37685 0.227523 1.56732 9 9 9
-0.370416 0.22809 1.57215 19 19 19
-0.361932 0.227392 1.56822 52 52 52
-0.350149 0.22455 1.54944 64 64 64
-0.341737 0.223795 1.54501 65 65 65
-0.335423 0.224411 1.55 64 64 64
-0.329145 0.225079 1.55531 49 49 49
-0.325412 0.227557 1.5731 11 11 11
-0.317486 0.227149 1.57091 10 10 10
-0.304016 0.222662 1.54046 6 6 6
-0.305652 0.229289 1.58687 6 6 6
-0.296605 0.228031 1.5787 7 7 7
-0.284721 0.224474 1.55456 6 6 6
-0.286286 0.231611 1.60445 6 6 6
-0.278598 0.231444 1.60374 4 4 4
-0.271918 0.232128 1.60889 7 7 7
0 0 0 0 0 0
-0.261657 0.236418 1.63937 6 6 6
0 0 0 0 0 0
-0.239274 0.229607 1.59278 3 3 3
-0.223491 0.221328 1.53562 1 1 1
-0.215783 0.220761 1.53194 4 4 4
0 0 0 0 0 0
-0.20539 0.225012 1.56189 2 2 2
-0.199612 0.226711 1.57388 2 2 2
0 0 0 0 0 0
0 0 0 0 0 0
0 0 0 0 0 0
0 0 0 0 0 0
0 0 0 0 0 0
-0.0885054 0.128922 0.895509 50 50 50
-0.0841184 0.128586 0.893238 87 87 87
-0.0792476 0.127438 0.885315 148 148 148
-0.0754406 0.127969 0.889047 181 181 181
-0.0710943 0.127593 0.886477 181 181 181
-0.0671799 0.127994 0.889298 189 189 189
-0.0625916 0.127078 0.882973 167 167 167
-0.058447 0.126999 0.88245 156 156 156
-0.0545504 0.127487 0.885869 130 130 130
-0.0505056 0.127681 0.887234 110 110 110
-0.0463875 0.127707 0.887435 105 105 105
-0.042202 0.127534 0.886252 113 113 113
-0.0380217 0.127341 0.884928 120 120 120
-0.0339975 0.127688 0.887352 128 128 128
-0.0297452 0.127156 0.883662 139 139 139
-0.0254784 0.126381 0.878288 165 165 165
-0.0214023 0.126437 0.878682 174 174 174
-0.0173985 0.127047 0.882925 166 166 166
-0.0132699 0.126841 0.881502 171 171 171
-0.00917285 0.126887 0.881823 173 173 173
-0.00505476 0.126482 0.879008 154 154 154
-0.000964432 0.126279 0.877598 151 151 151
0.00311402 0.126126 0.876538 153 153 153
0.00720382 0.126346 0.878062 140 140 140
0.0113646 0.127201 0.884002 110 110 110
0.0154888 0.127301 0.884693 75 75 75
0.0193748 0.125812 0.87434 52 52 52
0.0233068 0.125087 0.869294 39 39 39
0.027214 0.124463 0.864949 31 31 31
0.0311672 0.124182 0.862993 28 28 28
0.0352072 0.124273 0.86361 30 30 30
0.0380136 0.120436 0.836933 36 36 36
0.0419973 0.120696 0.838724 42 42 42
0.0459075 0.120718 0.838861 48 48 48
0.0495138 0.12 0.833855 49 49 49
0.0531848 0.119532 0.830579 55 55 55
0.0569636 0.119353 0.82931 54 54 54
0.0608195 0.119349 0.829249 54 54 54
0.0642103 0.118486 0.823223 53 53 53
0.0676357 0.117781 0.818288 58 58 58
0.0714062 0.11772 0.817823 63 63 63
0.0753904 0.118 0.81972 67 67 67
0.0792536 0.118072 0.820171 68 68 68
0.0829714 0.117931 0.819137 73 73 73
0.0867798 0.117926 0.819037 64 64 64
0.0907116 0.118082 0.820048 56 56 56
0.094291 0.117784 0.817909 52 52 52
0.0983577 0.118096 0.819985 42 42 42
0.102993 0.11904 0.826452 37 37 37
0 0 0 0 0 0
0.111914 0.120358 0.835386 30 30 30
0.115921 0.120478 0.836099 25 25 25
0.120358 0.121024 0.839755 27 27 27
0 0 0 0 0 0
0 0 0 0 0 0
0.134228 0.122978 0.85284 23 23 23
0 0 0 0 0 0
0 0 0 0 0 0
0 0 0 0 0 0
0 0 0 0 0 0
0 0 0 0 0 0
0 0 0 0 0 0
0 0 0 0 0 0
0 0 0 0 0 0
0 0 0 0 0 0
0.182676 0.129123 0.892798 19 19 19
0 0 0 0 0 0
0 0 0 0 0 0
0 0 0 0 0 0
0 0 0 0 0 0
0 0 0 0 0 0
0 0 0 0 0 0
0 0 0 0 0 0
0 0 0 0 0 0
0.259718 0.152265 1.04789 26 26 26
0.264869 0.152397 1.04809 21 21 21
0.267803 0.151271 1.03962 26 26 26
0.272962 0.151421 1.03988 29 29 29
0.276979 0.150942 1.03579 48 48 48
0.279713 0.149793 1.02707 68 68 68
0.283468 0.149221 1.02228 59 59 59
0.290853 0.150546 1.03045 49 49 49
0.29352 0.149427 1.02183 51 51 51
0.299352 0.149928 1.02427 48 48 48
0.313234 0.154381 1.05363 37 37 37
0.319998 0.155241 1.05839 37 37 37
0.324203 0.154853 1.05459 27 27 27
0.317816 0.149494 1.01694 34 34 34
0.32415 0.15019 1.02046 56 56 56
0 0 0 0 0 0
0.33224 0.149461 1.01297 85 85 85
0.337469 0.149637 1.01283 78 78 78
0.341828 0.149428 1.01003 54 54 54
0.34663 0.149415 1.00852 21 21 21
0.355167 0.150991 1.01767 19 19 19
0.356638 0.149561 1.00651 37 37 37
0.361943 0.149756 1.00625 48 48 48
0.367092 0.149881 1.00548 54 54 54
0.371652 0.149767 1.00306 63 63 63
0.37305 0.148396 0.992198 76 76 76
0.378542 0.148669 0.992294 84 84 84
0.386211 0.14978 0.997925 59 59 59
0.391005 0.149762 0.995984 41 41 41
0.392732 0.148583 0.986309 33 33 33
0.396748 0.148289 0.982486 36 36 36
0.401874 0.148412 0.981402 58 58 58
0.403565 0.147278 0.971998 88 88 88
0.407424 0.146952 0.967925 99 99 99
0.409031 0.145832 0.958621 102 102 102
0.411221 0.144942 0.950851 116 116 116
0.413396 0.144067 0.9432 104 104 104
0.414661 0.142898 0.933653 107 107 107
0.416172 0.141839 0.924864 97 97 97
0.419715 0.141487 0.920731 84 84 84
0.424725 0.141633 0.919861 62 62 62
0.431635 0.142402 0.923067 68 68 68
0.432597 0.141213 0.913632 67 67 67
0.436746 0.141079 0.911092 60 60 60
0.440285 0.140752 0.907382 65 65 65
0 0 0 0 0 0
0 0 0 0 0 0
0.903374 0.28011 1.79721 17 17 17
0.912922 0.280262 1.79572 24 24 24
0.917406 0.278871 1.78458 25 25 25
0.927499 0.279195 1.78468 31 31 31
0.93845 0.279769 1.78662 29 29 29
0.944867 0.278993 1.78022 22 22 22
0.949584 0.277735 1.77103 22 22 22
0.961828 0.278681 1.77619 26 26 26
0.969502 0.278298 1.77317 26 26 26
0.97472 0.277223 1.76605 18 18 18
-0.748966 0.209368 1.29514 4 4 4
-0.720476 0.203182 1.25585 5 5 5
-0.715234 0.203501 1.257 3 3 3
-0.707283 0.203048 1.25359 5 5 5
-0.697155 0.201956 1.24645 6 6 6
-0.694402 0.203 1.25271 6 6 6
-0.689757 0.203505 1.25586 3 3 3
-0.687178 0.204635 1.26307 7 7 7
-0.674912 0.202874 1.25266 6 6 6
-0.6734 0.204343 1.2624 7 7 7
-0.677063 0.207425 1.28232 7 7 7
-0.661223 0.204535 1.26553 5 5 5
-0.657065 0.205237 1.27113 6 6 6
-0.654169 0.20635 1.27948 9 9 9
-0.659497 0.210107 1.30443 11 11 11
-0.652406 0.209942 1.30522 8 8 8
-0.638689 0.20762 1.29273 10 10 10
-0.62364 0.204813 1.27729 9 9 9
-0.608642 0.201964 1.26166 11 11 11
0 0 0 0 0 0
0 0 0 0 0 0
-0.434771 0.148911 0.935376 161 161 161
-0.428903 0.148494 0.934565 170 170 170
-0.420837 0.147298 0.928869 195 195 195
-0.414994 0.146863 0.927974 204 204 204
-0.408153 0.146061 0.924761 191 191 191
-0.405634 0.146804 0.931347 98 98 98
0 0 0 0 0 0
-0.552404 0.204559 1.30298 15 15 15
-0.554059 0.207579 1.32486 15 15 15
-0.565374 0.214333 1.37067 12 12 12
-0.560425 0.215009 1.37767 12 12 12
-0.554856 0.215461 1.38322 13 13 13
-0.546286 0.214744 1.38122 14 14 14
-0.545907 0.21727 1.40005 12 12 12
-0.539685 0.217504 1.4041 12 12 12
-0.536401 0.218944 1.4159 10 10 10
-0.534083 0.220821 1.4305 10 10 10
-0.532584 0.223089 1.44763 11 11 11
-0.517936 0.219837 1.42886 11 11 11
-0.5083 0.218653 1.42343 10 10 10
-0.506584 0.22089 1.44021 11 11 11
-0.509862 0.225397 1.4718 11 11 11
-0.502648 0.225327 1.47347 13 13 13
-0.491025 0.223251 1.46194 9 9 9
-0.484648 0.223535 1.46578 12 12 12
-0.476804 0.223139 1.4651 6 6 6
-0.466468 0.221549 1.4565 6 6 6
-0.460737 0.222131 1.4621 8 8 8
-0.457494 0.223948 1.47579 5 5 5
-0.453488 0.225443 1.48732 7 7 7
-0.446904 0.225683 1.49052 10 10 10
-0.444815 0.228238 1.50896 11 11 11
-0.440426 0.229676 1.51998 8 8 8
-0.434997 0.230611 1.52763 8 8 8
-0.421036 0.226978 1.50494 10 10 10
-0.415163 0.227655 1.51076 10 10 10
-0.406242 0.226655 1.50539 11 11 11
-0.405125 0.230051 1.52917 7 7 7
-0.398895 0.230614 1.53409 8 8 8
-0.393797 0.231864 1.54354 9 9 9
-0.383684 0.230153 1.53322 9 9 9
-0.377585 0.230831 1.53876 8 8 8
-0.371931 0.231812 1.54628 18 18 18
-0.361733 0.229944 1.53474 38 38 38
-0.352702 0.228757 1.52769 51 51 51
-0.347243 0.229885 1.53606 62 62 62
-0.34178 0.231059 1.5447 62 62 62
-0.33555 0.231754 1.5501 57 57 57
-0.332712 0.234873 1.57168 21 21 21
-0.327388 0.236339 1.58218 5 5 5
0 0 0 0 0 0
-0.310271 0.234589 1.57172 5 5 5
-0.299055 0.231592 1.55221 9 9 9
-0.304648 0.241786 1.62109 8 8 8
-0.290924 0.23678 1.58803 6 6 6
0 0 0 0 0 0
-0.277858 0.238292 1.59911 5 5 5
-0.270018 0.237958 1.5973 5 5 5
0 0 0 0 0 0
-0.252315 0.235347 1.58053 3 3 3
-0.240378 0.230959 1.55139 8 8 8
0 0 0 0 0 0
0 0 0 0 0 0
0 0 0 0 0 0
-0.219294 0.239528 1.6101 8 8 8
-0.210136 0.237654 1.59774 4 4 4
-0.202313 0.237207 1.59495 4 4 4
0 0 0 0 0 0
0 0 0 0 0 0
0 0 0 0 0 0
0 0 0 0 0 0
0 0 0 0 0 0
0 0 0 0 0 0
0 0 0 0 0 0
0 0 0 0 0 0
0 0 0 0 0 0
-0.0719728 0.133345 0.897354 78 78 78
-0.0667717 0.131328 0.883823 126 126 126
-0.0624234 0.130834 0.880533 187 187 187
-0.0584336 0.131075 0.882185 204 204 204
-0.0543765 0.131189 0.882984 186 186 186
-0.0503594 0.131427 0.884608 178 178 178
-0.0463498 0.131728 0.88666 169 169 169
-0.042254 0.131819 0.887291 137 137 137
-0.0381716 0.131976 0.888368 109 109 109
-0.0339051 0.131458 0.884893 106 106 106
-0.0298741 0.131835 0.887446 114 114 114
-0.0257586 0.131902 0.887903 115 115 115
-0.0215028 0.131137 0.882765 127 127 127
-0.0173665 0.130913 0.881262 139 139 139
-0.0133206 0.131442 0.88483 148 148 148
-0.00916258 0.130842 0.880796 152 152 152
-0.00504902 0.130422 0.877971 169 169 169
-0.00096354 0.130241 0.876748 168 168 168
0.00311391 0.130199 0.876468 188 188 188
0.00718674 0.130121 0.87594 184 184 184
0.0112869 0.130416 0.877921 156 156 156
0.0153575 0.130302 0.877155 153 153 153
0.0194057 0.130086 0.875694 135 135 135
0.023503 0.130218 0.876571 120 120 120
0.0274898 0.129788 0.87367 92 92 92
0.0315649 0.129833 0.87396 62 62 62
0.0355939 0.129699 0.873047 40 40 40
0.0392374 0.128332 0.863828 34 34 34
0.0428538 0.127138 0.855776 33 33 33
0.0468721 0.127239 0.856434 35 35 35
0.0504562 0.126237 0.849668 32 32 32
0.053396 0.123886 0.833818 40 40 40
0.0570709 0.123444 0.830811 45 45 45
0.0607016 0.122968 0.827577 46 46 46
0.0642315 0.122357 0.823426 54 54 54
0.0675351 0.121408 0.816999 54 54 54
0.0711454 0.121082 0.81476 60 60 60
0.075203 0.121512 0.817602 60 60 60
0.0789467 0.121417 0.816911 57 57 57
0.0827653 0.121441 0.817013 66 66 66
0.0867135 0.121645 0.818316 71 71 71
0.0902117 0.121227 0.81543 60 60 60
0.0939191 0.121113 0.814579 61 61 61
0.0980647 0.12155 0.817432 57 57 57
0.102289 0.122049 0.820692 57 57 57
0.10594 0.121852 0.819258 54 54 54
0.109735 0.121829 0.818989 43 43 43
0.113691 0.121981 0.819884 42 42 42
0.118811 0.12333 0.828816 36 36 36
0.122426 0.123082 0.827001 35 35 35
0.12666 0.123452 0.829329 32 32 32
0.132257 0.125089 0.840148 31 31 31
0 0 0 0 0 0
0 0 0 0 0 0
0.143362 0.124527 0.835777 19 19 19
0.14772 0.124916 0.838152 17 17 17
0.153466 0.126426 0.84804 22 22 22
0.157929 0.126831 0.85049 18 18 18
0 0 0 0 0 0
0.167115 0.127782 0.856274 16 16 16
0.173879 0.129844 0.869768 21 21 21
0.181365 0.13234 0.88613 20 20 20
0.18467 0.131741 0.881749 19 19 19
0.185932 0.129743 0.867983 17 17 17
0.194985 0.133151 0.890358 16 16 16
0 0 0 0 0 0
0.201856 0.132189 0.883017 20 20 20
0 0 0 0 0 0
0 0 0 0 0 0
0 0 0 0 0 0
0.253359 0.153339 1.02183 39 39 39
0.260173 0.154534 1.02909 33 33 33
0.264417 0.154187 1.02604 34 34 34
0.268712 0.153882 1.02324 35 35 35
0.274306 0.154318 1.02534 37 37 37
0.278574 0.154006 1.02242 41 41 41
0.282926 0.15375 1.01984 38 38 38
0.28587 0.15275 1.01231 34 34 34
0.290393 0.152613 1.01045 39 39 39
0.295575 0.152822 1.01084 44 44 44
0.302649 0.153986 1.0175 51 51 51
0 0 0 0 0 0
0.309007 0.152366 1.00461 58 58 58
0.313501 0.152231 1.00257 76 76 76
0.318482 0.152333 1.00205 101 101 101
0.32301 0.152219 1.00005 88 88 88
0.32796 0.152305 0.99933 72 72 72
0.333797 0.152793 1.0012 63 63 63
0.338454 0.152736 0.999443 62 62 62
0.34237 0.15235 0.995499 63 63 63
0.345609 0.151678 0.989647 58 58 58
0.354172 0.153328 0.998898 69 69 69
0.35995 0.153746 1.00005 75 75 75
0.364708 0.153722 0.998278 61 61 61
0.365621 0.152099 0.986101 62 62 62
0.369248 0.151633 0.981404 52 52 52
0.375412 0.152206 0.983396 69 69 69
0.380363 0.15228 0.982114 84 84 84
0.382278 0.151152 0.973054 86 86 86
0.387063 0.151172 0.971366 95 95 95
0.394047 0.152041 0.975088 76 76 76
0.396423 0.151131 0.967384 77 77 77
0.402439 0.151615 0.968577 71 71 71
0.407556 0.151752 0.967533 78 78 78
0.413397 0.152153 0.968147 87 87 87
0.411399 0.149692 0.950575 102 102 102
0.410751 0.147773 0.936495 82 82 82
0.410942 0.146195 0.924628 72 72 72
0.413582 0.145513 0.918472 71 71 71
0.417522 0.145298 0.915298 71 71 71
0.424122 0.146004 0.917949 74 74 74
0.424134 0.144451 0.906448 71 71 71
0.42794 0.144209 0.903242 74 74 74
0.43141 0.14386 0.899435 65 65 65
0.442122 0.145908 0.910662 59 59 59
0.453795 0.148229 0.923623 52 52 52
0.459951 0.148719 0.925236 11 11 11
0.920431 0.294625 1.83033 8 8 8
0.915263 0.290064 1.7996 29 29 29
0.922865 0.289599 1.79456 25 25 25
0.92962 0.28888 1.7882 27 27 27
0.936 0.288059 1.78149 28 28 28
0.940927 0.286811 1.77242 29 29 29
0.943476 0.284869 1.75935 21 21 21
0.947984 0.283549 1.75042 24 24 24
0.971794 0.287974 1.77725 21 21 21
0.990119 0.290706 1.79393 8 8 8
-0.720984 0.207857 1.24708 2 2 2
-0.716531 0.208397 1.24925 4 4 4
-0.710223 0.208403 1.24841 4 4 4
-0.702274 0.207923 1.24487 7 7 7
-0.688135 0.205585 1.23042 5 5 5
-0.69253 0.208792 1.24936 4 4 4
-0.694031 0.211178 1.26361 6 6 6
-0.676732 0.207835 1.24378 8 8 8
-0.669767 0.207632 1.24295 5 5 5
-0.669992 0.209675 1.25578 8 8 8
-0.670881 0.211968 1.27032 10 10 10
-0.661563 0.211048 1.26582 4 4 4
-0.649942 0.209369 1.25694 5 5 5
-0.650907 0.211751 1.27262 11 11 11
-0.637777 0.20955 1.26093 13 13 13
-0.644846 0.214007 1.28949 10 10 10
-0.641425 0.215039 1.29761 9 9 9
-0.626566 0.212218 1.28259 11 11 11
0 0 0 0 0 0
0 0 0 0 0 0
-0.440435 0.153924 0.935136 107 107 107
-0.435407 0.153799 0.936123 165 165 165
-0.427375 0.152599 0.930599 175 175 175
-0.421924 0.152303 0.930614 181 181 181
-0.41604 0.151844 0.929646 187 187 187
-0.408632 0.150811 0.925172 178 178 178
-0.408093 0.152319 0.936301 57 57 57
0 0 0 0 0 0
-0.550136 0.210098 1.29666 13 13 13
-0.554305 0.214174 1.32445 12 12 12
-0.5531 0.216246 1.3399 12 12 12
-0.554575 0.219427 1.36226 13 13 13
-0.543111 0.217504 1.35292 16 16 16
-0.548875 0.222519 1.38673 13 13 13
-0.546301 0.224235 1.40002 17 17 17
-0.540889 0.224816 1.4062 11 11 11
-0.53159 0.223775 1.40218 14 14 14
-0.535282 0.228247 1.43268 11 11 11
-0.525061 0.226825 1.42617 13 13 13
-0.508625 0.222645 1.40219 12 12 12
-0.50003 0.221831 1.39931 11 11 11
-0.503041 0.226214 1.42917 13 13 13
-0.502019 0.22888 1.44819 13 13 13
-0.498333 0.230389 1.45987 13 13 13
-0.486828 0.228274 1.44852 11 11 11
-0.477371 0.227073 1.44287 5 5 5
-0.472458 0.228029 1.45086 12 12 12
-0.470239 0.230334 1.46739 12 12 12
-0.459714 0.228578 1.458 9 9 9
-0.454417 0.229408 1.46502 9 9 9
-0.451567 0.231518 1.48018 11 11 11
-0.447002 0.232802 1.49003 9 9 9
-0.439293 0.232463 1.48943 12 12 12
-0.434751 0.233816 1.49961 9 9 9
-0.425697 0.232748 1.49421 10 10 10
-0.421467 0.234325 1.50574 11 11 11
-0.41289 0.233499 1.50177 8 8 8
-0.403325 0.232074 1.49388 10 10 10
-0.396385 0.232136 1.4955 9 9 9
-0.395539 0.235835 1.52051 8 8 8
-0.386619 0.234767 1.51475 10 10 10
-0.381344 0.235913 1.52324 15 15 15
-0.374474 0.236098 1.52546 26 26 26
-0.367167 0.236009 1.52587 38 38 38
-0.359932 0.235964 1.52652 39 39 39
-0.351288 0.234975 1.521 45 45 45
-0.345369 0.235805 1.52722 43 43 43
-0.340922 0.237696 1.54028 46 46 46
-0.335856 0.239228 1.55098 33 33 33
-0.329657 0.240004 1.55675 11 11 11
-0.322118 0.239817 1.55623 6 6 6
-0.321961 0.245244 1.59212 9 9 9
-0.309508 0.24134 1.5674 8 8 8
-0.310109 0.247673 1.60913 5 5 5
-0.301871 0.247085 1.60588 5 5 5
-0.293173 0.246081 1.59989 4 4 4
-0.28116 0.242171 1.57495 6 6 6
-0.268867 0.237802 1.54699 8 8 8
-0.267709 0.243312 1.58327 6 6 6
-0.258152 0.241284 1.57048 4 4 4
-0.254659 0.244972 1.59487 5 5 5
-0.244274 0.242051 1.57621 1 1 1
0 0 0 0 0 0
0 0 0 0 0 0
-0.226334 0.246527 1.60628 5 5 5
-0.218191 0.245786 1.60173 3 3 3
-0.213258 0.248738 1.62121 5 5 5
0 0 0 0 0 0
0 0 0 0 0 0
0 0 0 0 0 0
0 0 0 0 0 0
0 0 0 0 0 0
0 0 0 0 0 0
0 0 0 0 0 0
0 0 0 0 0 0
0 0 0 0 0 0
0 0 0 0 0 0
0 0 0 0 0 0
0 0 0 0 0 0
0 0 0 0 0 0
0 0 0 0 0 0
-0.0543769 0.135298 0.882921 126 126 126
-0.0502131 0.135149 0.881972 176 176 176
-0.0461468 0.135258 0.882712 195 195 195
-0.042122 0.135522 0.884458 198 198 198
-0.0380006 0.135499 0.884327 191 191 191
-0.0338906 0.135516 0.884456 174 174 174
-0.0297994 0.135624 0.885174 151 151 151
-0.0258574 0.136554 0.891255 121 121 121
-0.0216647 0.136262 0.889361 96 96 96
-0.017521 0.136213 0.88905 100 100 100
-0.0133538 0.135895 0.886979 115 115 115
-0.00920677 0.135591 0.884996 118 118 118
-0.0050584 0.134756 0.879553 127 127 127
-0.000964965 0.134518 0.877997 152 152 152
0.00311747 0.13443 0.877422 160 160 160
0.00720145 0.13447 0.877685 170 170 170
0.0112746 0.134352 0.876911 185 185 185
0.0153744 0.13453 0.878068 174 174 174
0.0195049 0.134846 0.880122 162 162 162
0.0235028 0.134294 0.876509 164 164 164
0.0275498 0.134145 0.875525 157 157 157
0.0315826 0.133974 0.874395 154 154 154
0.0356849 0.134102 0.87522 129 129 129
0.0399751 0.134839 0.88001 92 92 92
0.0438383 0.134132 0.875375 65 65 65
0.0475658 0.133166 0.869043 39 39 39
0.0513902 0.1326 0.865329 36 36 36
0.0548617 0.131273 0.856636 30 30 30
0.0577239 0.128766 0.840245 33 33 33
0.0615561 0.128604 0.83915 35 35 35
0.0651705 0.128033 0.835385 37 37 37
0.0677558 0.125619 0.819587 40 40 40
0.0712599 0.125074 0.815987 50 50 50
0.075194 0.125302 0.817414 54 54 54
0.0791469 0.125537 0.818888 57 57 57
0.0828968 0.125443 0.818211 58 58 58
0.0864861 0.125125 0.816066 56 56 56
0.0901773 0.124976 0.81501 57 57 57
0.0941391 0.125198 0.816372 63 63 63
0.0984495 0.125848 0.820519 68 68 68
0.101846 0.125326 0.817012 68 68 68
0.105118 0.124693 0.812774 71 71 71
0.108756 0.124523 0.811545 63 63 63
0.112892 0.124917 0.813979 59 59 59
0.116249 0.124449 0.810793 57 57 57
0.119817 0.12423 0.809215 49 49 49
0.125448 0.126099 0.821225 46 46 46
0.129037 0.125865 0.819523 44 44 44
0.133306 0.12629 0.822094 37 37 37
0.136074 0.125307 0.815493 35 35 35
0.140625 0.125975 0.819627 30 30 30
0.144606 0.126111 0.82028 29 29 29
0.149862 0.127324 0.827913 28 28 28
0.15641 0.129545 0.842085 24 24 24
0.158982 0.128445 0.834647 25 25 25
0.163987 0.129316 0.840003 23 23 23
0.170613 0.131395 0.853179 21 21 21
0 0 0 0 0 0
0.180976 0.133149 0.863834 24 24 24
0.183976 0.132399 0.858571 17 17 17
0.191996 0.135215 0.87641 19 19 19
0.195615 0.134879 0.873785 21 21 21
0.201656 0.136194 0.881822 23 23 23
0 0 0 0 0 0
0 0 0 0 0 0
0 0 0 0 0 0
0.251372 0.156901 1.0134 43 43 43
0.257261 0.157589 1.01714 41 41 41
0.262207 0.157686 1.01702 60 60 60
0.267369 0.157907 1.01767 63 63 63
0.271929 0.157771 1.01598 60 60 60
0.276922 0.157886 1.01587 53 53 53
0.279869 0.156851 1.00833 70 70 70
0.284663 0.156868 1.00752 54 54 54
0.287778 0.155975 1.00083 35 35 35
0.293339 0.156415 1.00266 40 40 40
0.298884 0.156833 1.0043 59 59 59
0.302681 0.156334 1.00003 38 38 38
0.307721 0.156483 0.999864 27 27 27
0.312908 0.156701 1.00009 45 45 45
0.318658 0.157191 1.00201 39 39 39
0.323238 0.157097 1.00015 13 13 13
0.320458 0.153481 0.975865 15 15 15
0.323925 0.152917 0.970974 12 12 12
0.333461 0.155195 0.984064 26 26 26
0.339617 0.155857 0.986846 45 45 45
0.346366 0.15677 0.991151 29 29 29
0.348925 0.155787 0.98343 44 44 44
0.356758 0.157154 0.990492 59 59 59
0.361384 0.15709 0.988484 50 50 50
0.363967 0.156152 0.980942 45 45 45
0.36745 0.155619 0.975919 55 55 55
0.372148 0.155608 0.974134 52 52 52
0.376318 0.155379 0.970952 66 66 66
0.38041 0.155124 0.967577 55 55 55
0.38537 0.155224 0.966393 41 41 41
0.389045 0.154811 0.961985 19 19 19
0.393292 0.154633 0.959018 29 29 29
0.396732 0.154145 0.95412 63 63 63
0.400574 0.153823 0.95024 82 82 82
0.409005 0.155251 0.957145 88 88 88
0.404993 0.151976 0.935078 61 61 61
0.404761 0.150178 0.922159 69 69 69
0.407398 0.149472 0.915989 62 62 62
0.40894 0.148385 0.907518 66 66 66
0.413313 0.148337 0.905444 61 61 61
0.415146 0.147389 0.897917 75 75 75
0.415025 0.145775 0.886402 70 70 70
0.419712 0.145865 0.885324 71 71 71
0.427295 0.14695 0.890325 74 74 74
0.436236 0.148475 0.898036 66 66 66
0.443351 0.149353 0.901892 49 49 49
0.452952 0.151042 0.910713 12 12 12
0.910271 0.300498 1.80932 8 8 8
0.915635 0.299268 1.79961 22 22 22
0.923913 0.299006 1.79596 25 25 25
0.931255 0.29845 1.7908 25 25 25
0.93569 0.296981 1.78044 23 23 23
0.9414 0.295941 1.77294 20 20 20
0.954883 0.297342 1.78035 26 26 26
0.950413 0.293178 1.75473 24 24 24
0.960396 0.293508 1.75632 17 17 17
0 0 0 0 0 0
0 0 0 0 0 0
-0.707149 0.211914 1.23318 4 4 4
-0.696764 0.210662 1.22498 3 3 3
-0.695835 0.212272 1.23363 4 4 4
-0.693149 0.213371 1.2395 5 5 5
-0.684466 0.212627 1.23487 7 7 7
-0.682733 0.214048 1.24302 3 3 3
-0.670294 0.212108 1.23187 8 8 8
-0.660843 0.211086 1.22625 6 6 6
-0.663141 0.213833 1.24273 6 6 6
-0.663109 0.215873 1.25533 6 6 6
-0.65731 0.216058 1.25734 9 9 9
-0.648376 0.215206 1.2535 7 7 7
0 0 0 0 0 0
-0.63615 0.215361 1.25718 13 13 13
-0.634116 0.216836 1.26744 11 11 11
-0.633119 0.218699 1.28015 12 12 12
-0.624296 0.217869 1.27724 9 9 9
0 0 0 0 0 0
0 0 0 0 0 0
-0.44041 0.158589 0.934478 136 136 136
-0.434961 0.158306 0.934533 172 172 172
-0.429153 0.157886 0.933817 178 178 178
-0.422566 0.157167 0.931363 186 186 186
-0.416387 0.156585 0.929738 183 183 183
-0.410992 0.156288 0.929819 140 140 140
0 0 0 0 0 0
-0.543746 0.211511 1.2634 11 11 11
-0.548038 0.215652 1.29071 14 14 14
-0.552567 0.219985 1.31927 18 18 18
-0.551404 0.222128 1.33475 13 13 13
-0.541325 0.220688 1.32868 17 17 17
-0.539527 0.22263 1.34295 10 10 10
-0.55134 0.230305 1.39188 13 13 13
-0.547022 0.231349 1.4008 16 16 16
-0.527431 0.225879 1.37017 14 14 14
-0.52169 0.226276 1.37503 12 12 12
-0.519469 0.228229 1.38932 13 13 13
-0.516001 0.22968 1.40053 12 12 12
-0.501455 0.226172 1.38143 11 11 11
-0.503297 0.23006 1.40744 10 10 10
-0.50126 0.232258 1.42311 11 11 11
-0.494697 0.23239 1.42609 11 11 11
-0.490986 0.233884 1.43738 13 13 13
-0.4828 0.233259 1.43558 12 12 12
-0.472571 0.231615 1.42743 9 9 9
-0.473037 0.235241 1.45171 11 11 11
-0.469931 0.237172 1.46552 12 12 12
-0.457468 0.234368 1.44999 10 10 10
-0.453152 0.235716 1.46007 8 8 8
-0.453044 0.239328 1.48416 11 11 11
-0.443395 0.237935 1.47716 10 10 10
-0.435085 0.237227 1.47433 12 12 12
-0.42047 0.233002 1.44956 11 11 11
-0.420132 0.23668 1.47389 8 8 8
-0.416913 0.238831 1.4887 13 13 13
-0.409375 0.23854 1.48823 11 11 11
-0.401052 0.237773 1.48473 11 11 11
-0.395991 0.238947 1.4933 10 10 10
-0.387098 0.23781 1.48737 10 10 10
-0.383344 0.239846 1.50124 21 21 21
-0.376532 0.240009 1.50335 32 32 32
-0.37073 0.240835 1.50956 40 40 40
-0.364833 0.24163 1.51554 32 32 32
-0.357437 0.241443 1.51532 36 36 36
-0.350118 0.241303 1.51535 44 44 44
-0.34475 0.242529 1.52391 35 35 35
-0.34017 0.244373 1.53632 27 27 27
-0.334584 0.245559 1.54456 11 11 11
-0.322772 0.242126 1.52371 6 6 6
-0.321424 0.246566 1.55236 5 5 5
-0.319062 0.250415 1.57727 6 6 6
-0.314562 0.252728 1.59249 6 6 6
-0.305154 0.251115 1.58294 7 7 7
-0.29955 0.25263 1.59307 8 8 8
-0.291928 0.252477 1.59265 5 5 5
-0.274671 0.243765 1.53819 4 4 4
-0.272969 0.24876 1.57019 6 6 6
-0.261316 0.244712 1.54507 5 5 5
-0.259126 0.249548 1.57603 6 6 6
-0.253215 0.250978 1.58545 6 6 6
-0.245802 0.250961 1.58571 6 6 6
-0.238538 0.2511 1.58693 3 3 3
-0.23271 0.252807 1.59805 5 5 5
-0.231721 0.260058 1.64419 7 7 7
-0.222851 0.258659 1.63563 3 3 3
-0.211153 0.25376 1.60491 2 2 2
-0.206 0.256657 1.62348 6 6 6
0 0 0 0 0 0
-0.183835 0.247194 1.56404 7 7 7
0 0 0 0 0 0
0 0 0 0 0 0
0 0 0 0 0 0
-0.157297 0.251348 1.59098 6 6 6
-0.144782 0.242782 1.53689 4 4 4
-0.140523 0.247891 1.56935 3 3 3
0 0 0 0 0 0
0 0 0 0 0 0
-0.113149 0.236482 1.4974 6 6 6
0 0 0 0 0 0
0 0 0 0 0 0
0 0 0 0 0 0
0 0 0 0 0 0
-0.0469118 0.141675 0.897268 62 62 62
-0.042012 0.139273 0.882077 116 116 116
-0.0380025 0.139621 0.884304 171 171 171
-0.0339436 0.13985 0.885774 184 184 184
-0.0297228 0.139383 0.882831 213 213 213
-0.0254839 0.138668 0.878318 178 178 178
-0.0213776 0.138539 0.877513 176 176 176
-0.0174368 0.139675 0.884716 160 160 160
-0.0133548 0.140032 0.886986 128 128 128
-0.00925229 0.140398 0.889311 109 109 109
-0.00509259 0.139786 0.885439 107 107 107
-0.000971857 0.139592 0.884209 113 113 113
0.00314029 0.139525 0.883787 127 127 127
0.00722779 0.13906 0.880837 133 133 133
0.0113014 0.138761 0.878935 150 150 150
0.015422 0.139045 0.880728 153 153 153
0.0195031 0.138927 0.879977 153 153 153
0.0235405 0.138594 0.877854 164 164 164
0.0275459 0.138198 0.875335 182 182 182
0.031603 0.138131 0.874894 189 189 189
0.0356316 0.137968 0.873845 171 171 171
0.0397424 0.138125 0.874817 175 175 175
0.0437898 0.138052 0.874334 162 162 162
0.0478299 0.137971 0.873792 129 129 129
0.0518221 0.137775 0.872522 102 102 102
0.0556414 0.137181 0.868729 68 68 68
0.0591943 0.136056 0.861564 49 49 49
0.0633552 0.136382 0.863587 35 35 35
0.0667328 0.135083 0.85532 31 31 31
0 0 0 0 0 0
0.0725708 0.131243 0.8309 35 35 35
0.0762751 0.130962 0.829064 38 38 38
0.0799678 0.13069 0.827274 41 41 41
0.0833295 0.129927 0.822371 50 50 50
0.0866137 0.129115 0.817154 53 53 53
0.0901758 0.128768 0.814876 59 59 59
0.0944315 0.1294 0.818781 57 57 57
0.0985928 0.129858 0.82158 56 56 56
0.101589 0.128806 0.814812 57 57 57
0.104805 0.128097 0.810211 54 54 54
0.108825 0.128386 0.811911 64 64 64
0.112782 0.128584 0.813029 72 72 72
0.116177 0.128148 0.810128 71 71 71
0.11959 0.12776 0.807517 75 75 75
0.123008 0.127401 0.805076 61 61 61
0.126691 0.12733 0.804444 56 56 56
0.131793 0.128647 0.81257 46 46 46
0.135415 0.128487 0.811348 43 43 43
0.13877 0.128088 0.808609 45 45 45
0.142983 0.128482 0.81086 37 37 37
0.148806 0.130265 0.821854 40 40 40
0.152701 0.130313 0.82188 37 37 37
0.157792 0.131354 0.828154 36 36 36
0.161333 0.131087 0.826157 32 32 32
0.165948 0.131683 0.829586 28 28 28
0 0 0 0 0 0
0 0 0 0 0 0
0.179876 0.133378 0.83914 22 22 22
0.186843 0.135582 0.85258 24 24 24
0.19259 0.136826 0.859954 18 18 18
0.199845 0.139069 0.873567 19 19 19
0.205876 0.140387 0.881335 19 19 19
0 0 0 0 0 0
0.243112 0.159373 0.99927 27 27 27
0.246841 0.15875 0.994698 48 48 48
0.254738 0.160782 1.00671 48 48 48
0.261644 0.162126 1.01437 58 58 58
0.265263 0.16142 1.00918 50 50 50
0.269718 0.16124 1.00723 33 33 33
0.272697 0.160198 0.999875 36 36 36
0.278473 0.160808 1.00279 52 52 52
0.283849 0.16117 1.00412 66 66 66
0.283831 0.158507 0.986576 72 72 72
0.289853 0.159249 0.990198 61 61 61
0.295219 0.159613 0.991422 58 58 58
0.299387 0.159328 0.988574 41 41 41
0.305576 0.160111 0.992305 52 52 52
0.310606 0.160271 0.992133 47 47 47
0.316246 0.160738 0.993806 31 31 31
0.320033 0.160262 0.989612 29 29 29
0.316331 0.156105 0.962676 37 37 37
0.320813 0.156047 0.961014 39 39 39
0.328758 0.157652 0.969534 50 50 50
0.334087 0.157975 0.970114 61 61 61
0.337688 0.157483 0.965646 58 58 58
0.343741 0.158133 0.968134 54 54 54
0.348891 0.158355 0.967955 64 64 64
0.354359 0.158714 0.968563 59 59 59
0.361782 0.159928 0.974331 61 61 61
0.366325 0.159854 0.972203 74 74 74
0.368269 0.158662 0.963253 54 54 54
0.371247 0.15794 0.957138 31 31 31
0.375116 0.157609 0.953379 26 26 26
0 0 0 0 0 0
0 0 0 0 0 0
0.387117 0.156827 0.943227 57 57 57
0 0 0 0 0 0
0 0 0 0 0 0
0 0 0 0 0 0
0.394888 0.152683 0.91105 80 80 80
0.400526 0.153119 0.911821 77 77 77
0.400294 0.151325 0.89935 91 91 91
0.399898 0.14951 0.886809 85 85 85
0.405054 0.149787 0.886723 89 89 89
0.410458 0.15015 0.887169 92 92 92
0.413108 0.149507 0.881725 82 82 82
0.416978 0.149315 0.879 83 83 83
0.425123 0.150642 0.885268 73 73 73
0.433081 0.151876 0.891035 63 63 63
0.439696 0.152619 0.893984 48 48 48
0.444992 0.152893 0.894274 10 10 10
0.904445 0.30764 1.79695 11 11 11
0.913384 0.307597 1.79447 25 25 25
0.923878 0.308074 1.79527 25 25 25
0.928069 0.30646 1.78414 21 21 21
0.934138 0.305491 1.77705 24 24 24
0.946723 0.306652 1.78262 22 22 22
0.957871 0.307329 1.78567 24 24 24
0.96167 0.305658 1.77536 21 21 21
0.957857 0.301621 1.75161 15 15 15
0 0 0 0 0 0
-0.747073 0.228458 1.29296 4 4 4
-0.694568 0.214277 1.21155 2 2 2
-0.688175 0.214197 1.21014 4 4 4
-0.68623 0.215511 1.2168 6 6 6
-0.679971 0.215483 1.21607 8 8 8
0 0 0 0 0 0
-0.666816 0.215219 1.21405 7 7 7
-0.662993 0.21598 1.21839 3 3 3
-0.658013 0.216376 1.22087 4 4 4
-0.652537 0.216614 1.22267 7 7 7
-0.648595 0.217371 1.22759 10 10 10
0 0 0 0 0 0
-0.628141 0.214634 1.21399 9 9 9
-0.621753 0.21455 1.21472 8 8 8
-0.615298 0.214441 1.21547 10 10 10
-0.621861 0.218912 1.24237 10 10 10
-0.624856 0.222206 1.2628 10 10 10
-0.608295 0.218541 1.24382 15 15 15
-0.590953 0.214516 1.22285 16 16 16
0 0 0 0 0 0
-0.439691 0.162996 0.932339 148 148 148
-0.435045 0.163003 0.934074 160 160 160
-0.429327 0.162605 0.933533 169 169 169
-0.42286 0.161911 0.931328 186 186 186
-0.415987 0.161044 0.928147 186 186 186
-0.411019 0.160904 0.929168 115 115 115
0 0 0 0 0 0
-0.545596 0.218485 1.2667 12 12 12
-0.548442 0.222171 1.29064 17 17 17
-0.556167 0.227943 1.3268 13 13 13
-0.551506 0.228717 1.33392 17 17 17
-0.541034 0.227069 1.3269 14 14 14
-0.541027 0.229828 1.34561 16 16 16
-0.540242 0.232319 1.36278 11 11 11
-0.534631 0.232772 1.36798 10 10 10
-0.524223 0.231121 1.36077 9 9 9
-0.518835 0.231669 1.36644 12 12 12
-0.51743 0.234033 1.38281 7 7 7
-0.51046 0.233909 1.38444 12 12 12
-0.500831 0.232547 1.37867 11 11 11
-0.492998 0.231993 1.37762 12 12 12
-0.487738 0.232652 1.38372 11 11 11
-0.491822 0.237848 1.41679 12 12 12
-0.484099 0.237399 1.41622 11 11 11
-0.47904 0.238263 1.42342 9 9 9
-0.476789 0.240569 1.43919 8 8 8
-0.471802 0.241541 1.44696 9 9 9
-0.464271 0.241221 1.44692 11 11 11
-0.457714 0.241405 1.44984 9 9 9
-0.456591 0.244503 1.47023 8 8 8
-0.446049 0.242577 1.46035 9 9 9
-0.435345 0.240499 1.44947 10 10 10
-0.429329 0.240987 1.45398 10 10 10
-0.423464 0.241577 1.45906 9 9 9
-0.415062 0.240714 1.4553 9 9 9
-0.411456 0.242651 1.46842 12 12 12
-0.403383 0.241975 1.46567 9 9 9
-0.398365 0.24314 1.47402 13 13 13
-0.390453 0.242549 1.47168 15 15 15
-0.384264 0.243025 1.47576 32 32 32
-0.378952 0.244085 1.48334 32 32 32
-0.373747 0.245254 1.49154 41 41 41
-0.36751 0.245778 1.49578 43 43 43
-0.360946 0.2461 1.49874 38 38 38
-0.355025 0.246881 1.50446 34 34 34
-0.348887 0.24754 1.5094 35 35 35
-0.3433 0.248626 1.51689 18 18 18
-0.337812 0.249831 1.52509 10 10 10
-0.330284 0.249547 1.52414 4 4 4
0 0 0 0 0 0
-0.321422 0.253831 1.55181 5 5 5
-0.316236 0.255511 1.56277 9 9 9
-0.311697 0.257807 1.57747 8 8 8
-0.303003 0.256693 1.57128 5 5 5
-0.297243 0.258072 1.58032 5 5 5
-0.290886 0.25899 1.5865 6 6 6
-0.282184 0.257812 1.57981 4 4 4
0 0 0 0 0 0
-0.266952 0.257358 1.57798 4 4 4
-0.259635 0.257407 1.57872 8 8 8
-0.249988 0.255082 1.56487 5 5 5
-0.241731 0.254078 1.55908 2 2 2
-0.236536 0.25633 1.57326 5 5 5
-0.233447 0.261081 1.60276 5 5 5
0 0 0 0 0 0
-0.219096 0.261794 1.60774 5 5 5
-0.206014 0.25488 1.56555 6 6 6
-0.201399 0.258319 1.58692 3 3 3
0 0 0 0 0 0
0 0 0 0 0 0
-0.17559 0.253094 1.55545 5 5 5
-0.167277 0.251488 1.54576 5 5 5
-0.167253 0.26276 1.61521 5 5 5
-0.16029 0.263679 1.62102 4 4 4
-0.149687 0.258405 1.58874 5 5 5
0 0 0 0 0 0
-0.137082 0.262598 1.61477 0 0 0
0 0 0 0 0 0
0 0 0 0 0 0
0 0 0 0 0 0
0 0 0 0 0 0
0 0 0 0 0 0
0 0 0 0 0 0
0 0 0 0 0 0
0 0 0 0 0 0
0 0 0 0 0 0
-0.0340547 0.144442 0.888593 47 47 47
-0.029756 0.143651 0.883742 92 92 92
-0.0256661 0.143775 0.88452 154 154 154
-0.0213875 0.142688 0.877846 183 183 183
-0.0173463 0.143045 0.880053 197 197 197
-0.0133193 0.143776 0.884559 211 211 211
-0.00914629 0.14288 0.879054 186 186 186
-0.00507325 0.143359 0.882007 179 179 179
-0.000971475 0.143649 0.883791 164 164 164
0.00314735 0.14396 0.885703 132 132 132
0.00727527 0.144099 0.886553 101 101 101
0.0113564 0.143546 0.883146 111 111 111
0.0154495 0.143397 0.882227 124 124 124
0.0195501 0.143366 0.882024 120 120 120
0.0235775 0.142902 0.879161 131 131 131
0.0277922 0.143543 0.883088 153 153 153
0.0318058 0.143114 0.880431 164 164 164
0.0357311 0.142431 0.876207 166 166 166
0.0397322 0.142158 0.87451 173 173 173
0.0437917 0.142126 0.874287 167 167 167
0.0478655 0.142142 0.874355 191 191 191
0.0518784 0.141989 0.87338 166 166 166
0.0557736 0.141559 0.8707 167 167 167
0.0597001 0.141262 0.868829 137 137 137
0.0637235 0.141217 0.868507 111 111 111
0.0678505 0.141393 0.86954 84 84 84
0.071705 0.141014 0.867151 53 53 53
0.075455 0.14048 0.863809 39 39 39
0 0 0 0 0 0
0.0827735 0.139262 0.856178 36 36 36
0.0849801 0.136405 0.838536 36 36 36
0.0881731 0.135313 0.831737 40 40 40
0.0915694 0.134611 0.827335 39 39 39
0.0951374 0.134209 0.824762 45 45 45
0.0985066 0.133568 0.820718 48 48 48
0.101739 0.132796 0.815859 54 54 54
0.105136 0.132288 0.812615 55 55 55
0.10896 0.132333 0.812756 57 57 57
0.112691 0.132266 0.812204 59 59 59
0.116075 0.131809 0.809241 70 70 70
0.119503 0.13143 0.80675 65 65 65
0.12288 0.131019 0.804048 81 81 81
0.126847 0.131243 0.805237 73 73 73
0.130619 0.131258 0.805127 63 63 63
0.134581 0.131458 0.806141 60 60 60
0.137692 0.130839 0.802112 56 56 56
0.141626 0.131013 0.802937 47 47 47
0.146426 0.131959 0.808475 48 48 48
0.152773 0.134216 0.822021 39 39 39
0.156548 0.134159 0.821368 43 43 43
0.159687 0.133572 0.817461 40 40 40
0.16376 0.133776 0.818374 37 37 37
0.167496 0.133702 0.817566 39 39 39
0.17079 0.133286 0.814647 34 34 34
0.17677 0.134938 0.82435 30 30 30
0.183291 0.136924 0.836053 29 29 29
0.18937 0.138503 0.845245 21 21 21
0.194553 0.139376 0.85009 26 26 26
0 0 0 0 0 0
0 0 0 0 0 0
0 0 0 0 0 0
0.250567 0.165895 1.00925 20 20 20
0.255739 0.16617 1.0102 16 16 16
0.254305 0.162222 0.985448 40 40 40
0.257471 0.161296 0.979051 57 57 57
0.262499 0.161549 0.979775 61 61 61
0.268576 0.162427 0.984253 79 79 79
0.278309 0.165449 1.00166 51 51 51
0.28301 0.165428 1.0006 40 40 40
0.285036 0.163871 0.990207 45 45 45
0.291036 0.164612 0.993669 17 17 17
0.293265 0.163229 0.98428 43 43 43
0.298355 0.163458 0.984573 45 45 45
0.300749 0.162225 0.976027 19 19 19
0.305236 0.162142 0.974367 26 26 26
0.310939 0.162697 0.976497 24 24 24
0.314672 0.162221 0.972394 31 31 31
0.318624 0.16187 0.969002 44 44 44
0.320395 0.160436 0.959104 56 56 56
0 0 0 0 0 0
0.328089 0.15971 0.952018 87 87 87
0.335976 0.161302 0.960055 78 78 78
0.33808 0.160112 0.951489 96 96 96
0.342945 0.160243 0.950748 81 81 81
0.348783 0.16082 0.952601 80 80 80
0 0 0 0 0 0
0 0 0 0 0 0
0.350567 0.155486 0.916232 73 73 73
0.35522 0.155575 0.915096 64 64 64
0 0 0 0 0 0
0 0 0 0 0 0
0 0 0 0 0 0
0 0 0 0 0 0
0 0 0 0 0 0
0.376534 0.153372 0.891809 75 75 75
0.381342 0.153541 0.891015 93 93 93
0.389066 0.154865 0.896915 85 85 85
0.389991 0.153485 0.887154 74 74 74
0.393076 0.152976 0.882463 87 87 87
0.39674 0.1527 0.879152 81 81 81
0.400771 0.152571 0.876714 84 84 84
0.406322 0.153016 0.877615 88 88 88
0.411932 0.153475 0.878625 95 95 95
0.416266 0.153453 0.876938 89 89 89
0.422333 0.154064 0.878924 80 80 80
0.431716 0.155859 0.887722 63 63 63
0.438368 0.156642 0.890812 39 39 39
0 0 0 0 0 0
0.904198 0.316619 1.79566 13 13 13
0.914677 0.31711 1.79631 24 24 24
0.918629 0.315351 1.78446 22 22 22
0.928209 0.315539 1.78389 24 24 24
0.937322 0.315566 1.78269 21 21 21
0.947156 0.315833 1.78311 26 26 26
0.958563 0.316614 1.78673 23 23 23
0.96406 0.315447 1.77964 17 17 17
0.952209 0.308678 1.74125 5 5 5
0 0 0 0 0 0
-0.689801 0.216982 1.19423 2 2 2
-0.694913 0.22052 1.2125 4 4 4
-0.685223 0.219383 1.20523 2 2 2
-0.675971 0.218366 1.19883 7 7 7
-0.672092 0.219083 1.20214 6 6 6
-0.678594 0.223227 1.22444 8 8 8
-0.655662 0.217676 1.19378 5 5 5
-0.656124 0.219861 1.20573 3 3 3
-0.659152 0.222955 1.22288 4 4 4
-0.646741 0.220836 1.21163 10 10 10
-0.63506 0.218927 1.20173 6 6 6
-0.623832 0.21714 1.19268 8 8 8
-0.61527 0.216254 1.18875 9 9 9
-0.616435 0.218804 1.20389 7 7 7
-0.619451 0.222068 1.22317 8 8 8
-0.625975 0.226668 1.25001 9 9 9
-0.616202 0.225401 1.24468 13 13 13
-0.602666 0.222717 1.23163 15 15 15
-0.586958 0.219165 1.21386 18 18 18
0 0 0 0 0 0
-0.439973 0.167769 0.932318 160 160 160
-0.435476 0.167835 0.934349 169 169 169
-0.430363 0.167663 0.935111 173 173 173
-0.423169 0.166667 0.931313 199 199 199
-0.416761 0.165962 0.929162 195 195 195
-0.411427 0.165674 0.929362 85 85 85
0 0 0 0 0 0
-0.546025 0.224916 1.26667 15 15 15
-0.54941 0.228934 1.29186 16 16 16
-0.548913 0.231411 1.30842 15 15 15
-0.547004 0.233343 1.32195 15 15 15
-0.54605 0.235735 1.3381 15 15 15
-0.541914 0.236794 1.3467 14 14 14
-0.537117 0.237587 1.35378 13 13 13
-0.525758 0.235461 1.34418 14 14 14
-0.519076 0.235402 1.34631 12 12 12
-0.516759 0.237347 1.35988 13 13 13
-0.516627 0.240359 1.37956 11 11 11
-0.507643 0.239277 1.37572 11 11 11
-0.497913 0.23781 1.36957 12 12 12
-0.492291 0.238292 1.37459 12 12 12
-0.490024 0.240434 1.38915 12 12 12
-0.487347 0.24243 1.40285 11 11 11
-0.48221 0.243242 1.40966 10 10 10
-0.477344 0.244216 1.41736 8 8 8
-0.477533 0.247841 1.44042 12 12 12
-0.472665 0.24891 1.4486 13 13 13
-0.463811 0.24788 1.44451 11 11 11
-0.457335 0.248109 1.44768 13 13 13
-0.448852 0.24724 1.44438 13 13 13
-0.436976 0.244445 1.42974 14 14 14
-0.429316 0.243958 1.42851 12 12 12
-0.420404 0.242732 1.42289 13 13 13
-0.420967 0.247026 1.44959 11 11 11
-0.412735 0.246217 1.4463 8 8 8
-0.403202 0.24459 1.43815 13 13 13
-0.4044 0.249529 1.46856 15 15 15
-0.392206 0.246233 1.45045 31 31 31
-0.387194 0.247409 1.45863 36 36 36
-0.381002 0.24786 1.46249 39 39 39
-0.375871 0.249031 1.47055 38 38 38
-0.370598 0.250149 1.47826 42 42 42
-0.36469 0.250874 1.48361 43 43 43
-0.358752 0.251606 1.48895 36 36 36
-0.353862 0.253117 1.49887 27 27 27
-0.347035 0.253275 1.50074 14 14 14
-0.341346 0.254288 1.50763 9 9 9
-0.336004 0.255607 1.51631 7 7 7
-0.32906 0.255739 1.5179 6 6 6
-0.322047 0.255821 1.51916 8 8 8
-0.317327 0.25777 1.53147 8 8 8
-0.313903 0.260886 1.55069 7 7 7
-0.309113 0.262988 1.56385 9 9 9
-0.300572 0.261923 1.55815 7 7 7
-0.291337 0.260184 1.54841 9 9 9
-0.289795 0.265404 1.58005 8 8 8
-0.278929 0.262133 1.56111 6 6 6
-0.266924 0.257588 1.53454 7 7 7
-0.262811 0.260618 1.55306 5 5 5
-0.257226 0.262319 1.56364 7 7 7
-0.248028 0.260326 1.55218 5 5 5
-0.239128 0.258536 1.5419 8 8 8
-0.232609 0.259291 1.54676 5 5 5
-0.224756 0.258557 1.54272 8 8 8
-0.219703 0.261103 1.55823 8 8 8
0 0 0 0 0 0
-0.204708 0.260514 1.55529 6 6 6
0 0 0 0 0 0
-0.195108 0.267224 1.59587 6 6 6
-0.190919 0.271849 1.62372 4 4 4
-0.178036 0.263966 1.57684 5 5 5
-0.16825 0.260191 1.55448 5 5 5
-0.166628 0.269272 1.60891 5 5 5
-0.158464 0.268138 1.6023 3 3 3
-0.150655 0.26752 1.59876 5 5 5
-0.143763 0.268553 1.60508 7 7 7
-0.135444 0.266887 1.59525 4 4 4
-0.130193 0.271425 1.62249 5 5 5
0 0 0 0 0 0
0 0 0 0 0 0
0 0 0 0 0 0
-0.0968476 0.262923 1.57202 6 6 6
-0.0895548 0.262993 1.57251 3 3 3
-0.0807595 0.258271 1.54434 4 4 4
0 0 0 0 0 0
-0.066773 0.259782 1.55348 3 3 3
0 0 0 0 0 0
0 0 0 0 0 0
0 0 0 0 0 0
0 0 0 0 0 0
0 0 0 0 0 0
-0.0132995 0.147672 0.883162 120 120 120
-0.00917419 0.147418 0.881653 165 165 165
-0.00506633 0.147262 0.880723 207 207 207
-0.000968852 0.147362 0.881325 220 220 220
0.00312811 0.147176 0.880209 208 208 208
0.00721026 0.146899 0.87855 209 209 209
0.0113625 0.147734 0.88354 171 171 171
0.0154638 0.147639 0.88296 157 157 157
0.0195638 0.147574 0.88256 128 128 128
0.0237534 0.14809 0.885634 121 121 121
0.0279787 0.148643 0.888925 115 115 115
0.0321642 0.148869 0.890261 114 114 114
0.0359912 0.147574 0.882493 122 122 122
0.040039 0.147357 0.88117 136 136 136
0.0440633 0.147102 0.879613 127 127 127
0.0481535 0.147091 0.879518 141 141 141
0.0518724 0.146037 0.873177 159 159 159
0.0560365 0.146298 0.874699 171 171 171
0.059874 0.145729 0.871251 165 165 165
0.0638911 0.145641 0.870678 158 158 158
0.0680887 0.145951 0.872475 156 156 156
0.0721346 0.145919 0.872225 149 149 149
0.0761953 0.145919 0.872157 124 124 124
0.0803492 0.146089 0.873096 92 92 92
0.0842824 0.14586 0.871649 64 64 64
0.0874506 0.144389 0.862772 45 45 45
0.0893794 0.14109 0.842974 34 34 34
0.0932524 0.14101 0.842392 34 34 34
0.0965146 0.140049 0.836548 35 35 35
0.0996781 0.139026 0.83032 34 34 34
0 0 0 0 0 0
0.106273 0.137546 0.821232 41 41 41
0.109428 0.136706 0.816074 51 51 51
0.112892 0.136295 0.813471 60 60 60
0.115945 0.135431 0.808151 63 63 63
0.119687 0.1354 0.807794 64 64 64
0.123287 0.135216 0.806516 55 55 55
0.126939 0.135098 0.805615 60 60 60
0.130584 0.134979 0.804697 62 62 62
0.134087 0.134725 0.802955 77 77 77
0.137492 0.134388 0.800714 74 74 74
0.141486 0.13463 0.801905 70 70 70
0.145908 0.135257 0.805365 66 66 66
0.149551 0.135147 0.804428 59 59 59
0.154494 0.136189 0.810324 52 52 52
0.158107 0.136037 0.8091 50 50 50
0.162562 0.136599 0.812099 52 52 52
0.166086 0.136372 0.810389 44 44 44
0.169773 0.136285 0.809492 35 35 35
0.174102 0.136706 0.811591 38 38 38
0.181916 0.139786 0.829449 31 31 31
0.187591 0.141129 0.836958 26 26 26
0.195018 0.143709 0.851762 21 21 21
0.203441 0.146902 0.870163 21 21 21
0.210566 0.149052 0.882335 20 20 20
0 0 0 0 0 0
0.240374 0.163703 0.967736 75 75 75
0.247932 0.16571 0.978881 61 61 61
0.251684 0.165145 0.974797 55 55 55
0.254882 0.164245 0.968703 57 57 57
0.259204 0.164087 0.966961 41 41 41
0.266778 0.165958 0.977132 37 37 37
0.275067 0.168203 0.989443 40 40 40
0.275766 0.165808 0.974427 58 58 58
0.28241 0.167009 0.980508 50 50 50
0 0 0 0 0 0
0.290332 0.166223 0.973838 57 57 57
0.294465 0.165945 0.971123 56 56 56
0.297807 0.165237 0.96586 61 61 61
0.300644 0.164274 0.959077 60 60 60
0 0 0 0 0 0
0.313517 0.166252 0.96816 53 53 53
0 0 0 0 0 0
0 0 0 0 0 0
0 0 0 0 0 0
0 0 0 0 0 0
0 0 0 0 0 0
0 0 0 0 0 0
0.326788 0.157065 0.905256 92 92 92
0 0 0 0 0 0
0 0 0 0 0 0
0.337821 0.156104 0.895145 70 70 70
0.344326 0.15709 0.899195 80 80 80
0.3489 0.157181 0.898082 86 86 86
0.350824 0.156091 0.890202 90 90 90
0.354151 0.155644 0.885981 101 101 101
0.354808 0.154048 0.875221 106 106 106
0.356465 0.15292 0.867129 111 111 111
0.362828 0.153814 0.870489 106 106 106
0.37003 0.155038 0.875688 108 108 108
0.377356 0.156285 0.880985 108 108 108
0.383202 0.156898 0.882689 106 106 106
0.387485 0.156864 0.880757 105 105 105
0.389247 0.155822 0.873191 114 114 114
0.394323 0.156115 0.873137 114 114 114
0.399031 0.156257 0.872269 112 112 112
0.4041 0.156536 0.8722 105 105 105
0.409555 0.156957 0.872963 97 97 97
0.414052 0.157006 0.871709 95 95 95
0.420294 0.157709 0.874146 78 78 78
0.428598 0.159163 0.880806 49 49 49
0.43616 0.160314 0.885855 14 14 14
0 0 0 0 0 0
0.91098 0.328125 1.80834 15 15 15
0.906773 0.323369 1.7801 22 22 22
0.916801 0.323732 1.78031 24 24 24
0.927574 0.324349 1.78218 22 22 22
0.944381 0.327044 1.79571 22 22 22
0.949026 0.325515 1.78633 23 23 23
0.949532 0.322609 1.7697 25 25 25
0.950592 0.319944 1.75468 14 14 14
0.948305 0.316213 1.73411 4 4 4
0.938768 0.310154 1.70107 10 10 10
0 0 0 0 0 0
0 0 0 0 0 0
-0.679423 0.22358 1.19533 6 6 6
0 0 0 0 0 0
-0.669627 0.224354 1.19791 2 2 2
0 0 0 0 0 0
-0.654407 0.223306 1.19154 4 4 4
-0.660167 0.227372 1.21315 6 6 6
-0.660063 0.229476 1.22448 5 5 5
-0.651986 0.228822 1.22131 7 7 7
-0.637893 0.226024 1.20687 5 5 5
-0.628872 0.224985 1.20202 6 6 6
-0.622389 0.224844 1.20215 8 8 8
-0.622106 0.226962 1.21454 12 12 12
-0.624576 0.230136 1.23279 5 5 5
-0.623443 0.232034 1.24439 9 9 9
-0.612079 0.230123 1.23572 8 8 8
-0.594911 0.225969 1.21511 11 11 11
0 0 0 0 0 0
-0.45137 0.175047 0.944205 123 123 123
-0.443562 0.173844 0.939292 163 163 163
-0.437239 0.173204 0.937473 164 164 164
-0.430808 0.172507 0.935392 170 170 170
-0.424469 0.171832 0.933468 188 188 188
-0.418918 0.171464 0.933243 173 173 173
0 0 0 0 0 0
0 0 0 0 0 0
-0.547578 0.231832 1.26923 14 14 14
-0.548703 0.235002 1.28912 14 14 14
-0.54371 0.235596 1.29493 16 16 16
-0.538585 0.236146 1.3005 14 14 14
-0.537018 0.238288 1.31485 14 14 14
-0.540954 0.242953 1.34318 13 13 13
-0.531511 0.24165 1.33852 14 14 14
-0.521754 0.24017 1.33282 16 16 16
-0.515476 0.240275 1.33586 17 17 17
-0.51265 0.242012 1.34795 13 13 13
-0.510247 0.243997 1.3614 14 14 14
-0.503627 0.24399 1.36372 12 12 12
